ncols        921
nrows        32
xllcorner    41.599583333024
yllcorner    -26.241393729408
dx           0.009999999996
dy           0.009998031104
0 0 0 0 0 0 0 0 0 0 0 0 0 0 0 0 0 0 0 0 0 0 0 0 0 0 0 0 0 0 0 0 0 0 0 0 0 0 0 0 0 0 0 0 0 0 0 0 0 0 0 0 0 0 0 0 0 0 0 0 0 0 0 0 0 0 0 0 0 0 0 0 0 0 0 0 0 0 0 0 0 0 0 0 0 0 0 0 0 0 0 0 0 0 0 0 0 0 0 0 0 0 0 0 0 0 0 0 0 0 0 0 0 0 0 0 0 0 0 0 0 0 0 0 0 0 0 0 0 0 0 0 0 0 0 0 0 0 0 0 0 0 0 0 0 0 0 0 0 0 0 0 0 0 0 0 0 0 0 0 0 0 0 0 0 0 0 0 0 0 0 0 0 0 0 0 0 0 0 0 0 0 0 0 0 0 0 0 0 0 0 0 0 0 0 0 0 0 0 0 0 0 0 0 0 0 0 0 0 0 0 0 0 0 0 0 0 0 0 0 0 0 0 0 0 0 0 0 0 0 0 0 0 0 0 0 0 0 0 6 12 8 8 9 25 24 24 15 9 12 35 51 65 44 25 20 23 47 45 33 62 70 61 40 33 45 77 63 68 50 61 56 48 51 73 67 93 81 77 95 113 131 113 113 125 172 183 201 151 153 149 115 158 138 138 138 149 161 177 152 134 121 130 122 125 131 140 164 158 180 175 215 209 223 231 178 195 196 209 195 218 297 283 251 229 246 231 263 241 310 504 344 305 312 288 277 294 295 322 306 303 294 298 289 313 308 299 299 312 298 308 310 302 319 313 324 333 315 314 337 327 335 340 342 362 332 333 342 359 367 340 339 363 341 342 343 346 356 365 376 392 401 386 399 404 412 420 418 394 388 375 368 354 340 336 337 330 348 345 325 318 317 316 314 308 317 325 314 332 542 671 685 628 669 661 717 731 690 619 604 593 603 638 598 666 580 656 652 644 594 605 560 568 502 535 545 504 588 588 658 696 672 703 676 687 701 658 666 655 681 665 652 696 667 651 666 657 676 699 678 596 527 512 547 582 438 436 475 453 646 656 683 567 577 520 527 524 517 604 651 653 612 632 605 646 753 808 784 802 801 793 778 770 744 761 834 813 767 822 870 834 748 834 774 751 694 721 692 674 773 706 646 710 711 756 633 686 659 681 581 620 666 807 820 882 930 1114 1033 1029 1107 947 757 741 741 853 1100 994 773 867 1004 934 904 815 794 805 908 1125 1072 1028 1016 1071 1072 1150 1293 1154 1315 1028 910 832 808 885 892 878 777 757 848 849 881 814 771 733 686 756 657 725 696 712 692 675 664 640 666 646 675 669 649 673 680 843 742 733 792 737 796 767 751 787 918 957 942 869 864 946 1231 1367 1401 1156 898 818 828 931 1011 902 916 1043 1103 1122 1143 1132 948 930 945 1050 990 1101 1286 1150 1346 1292 1208 1242 1266 1141 1239 1234 1195 1196 1260 1223 1222 1275 1117 1008 1016 1009 995 979 967 945 1032 1034 959 877 874 782 822 821 783 796 765 767 766 762 763 760 758 757 758 760 758 759 759 758 757 758 757 759 758 759 759 759 759 758 758 757 766 818 900 899 899 904 941 1059 1038 1052 1123 1007 982 1023 986 987 1008 1014 968 996 1000 990 962 994 953 931 956 983 960 924 901 886 888 899 873 866 880 977 948 959 914 879 902 1061 1029 785 802 750 683 676 614 516 513 565 480 563 446 246 224 210 306 219 324 210 236 195 276 361 408 227 238 145 141 183 168 141 152 134 133 320 336 160 165 181 242 232 157 131 102 106 69 89 86 64 82 59 64 27 33 10 19 26 7 7 18 13 0 0 0 0 0 0 0 0 0 0 0 0 0 0 0 0 0 0 0 0 0 0 0 0 0 0 0 0 0 0 0 0 0 0 0 0 0 0 0 0 0 0 0 0 0 0 0 0 0 0 0 0 0 0 0 0 0 0 0 0 0 0 0 0 0 0 0 0 0 0 0 0 0 0 0 0 0 0 0 0 0 0 0 0 0 0 0 0 0 0 0 0 0 0 0 0 0 0 0 0 0 0 0 0 0 0 0 0 0 0 0 0 0 0 0 0 0 0 0 0 0 0 0 0 0 0 0 0 0 0
0 0 0 0 0 0 0 0 0 0 0 0 0 0 0 0 0 0 0 0 0 0 0 0 0 0 0 0 0 0 0 0 0 0 0 0 0 0 0 0 0 0 0 0 0 0 0 0 0 0 0 0 0 0 0 0 0 0 0 0 0 0 0 0 0 0 0 0 0 0 0 0 0 0 0 0 0 0 0 0 0 0 0 0 0 0 0 0 0 0 0 0 0 0 0 0 0 0 0 0 0 0 0 0 0 0 0 0 0 0 0 0 0 0 0 0 0 0 0 0 0 0 0 0 0 0 0 0 0 0 0 0 0 0 0 0 0 0 0 0 0 0 0 0 0 0 0 0 0 0 0 0 0 0 0 0 0 0 0 0 0 0 0 0 0 0 0 0 0 0 0 0 0 0 0 0 0 0 0 0 0 0 0 0 0 0 0 0 0 0 0 0 0 0 0 0 0 0 0 0 0 0 0 0 0 0 0 0 0 0 0 0 0 0 0 0 0 0 0 0 0 0 0 0 0 0 0 0 0 0 0 0 0 0 0 0 0 0 0 0 7 6 7 8 15 27 24 12 28 14 53 53 74 49 28 40 24 31 45 45 69 67 49 37 55 59 86 60 59 67 58 47 55 63 71 71 64 83 85 103 141 136 133 148 170 187 149 177 171 144 142 120 147 151 144 141 151 168 172 138 130 121 140 125 125 138 140 182 157 152 186 200 195 204 260 292 316 173 202 323 334 242 229 207 203 211 250 213 277 389 292 286 329 324 312 274 296 294 330 324 304 301 295 305 296 300 299 288 296 321 308 311 309 319 315 318 334 343 323 322 324 353 337 349 342 349 333 351 347 355 333 339 331 341 321 328 350 338 346 391 430 385 393 407 403 398 403 414 380 373 372 374 357 350 345 377 352 369 338 328 332 333 328 322 314 315 315 319 341 504 683 678 651 696 670 716 706 702 652 620 599 648 657 611 676 595 691 692 657 661 633 597 526 520 560 577 496 611 661 718 701 705 688 699 689 707 683 689 686 695 699 662 686 692 677 675 673 701 694 642 589 559 469 567 538 537 435 547 462 581 690 713 572 517 526 540 535 606 618 708 678 664 686 569 657 743 800 784 771 768 760 762 760 810 756 808 803 774 745 758 748 762 767 754 715 687 681 721 734 731 756 656 762 755 812 639 720 714 684 587 595 889 829 885 835 897 946 996 1079 1105 1041 828 760 749 873 895 871 853 900 1011 943 905 820 786 780 852 1313 1229 1194 1259 1393 1322 1410 1380 1297 1032 1034 841 806 927 951 896 869 742 788 856 930 826 797 815 806 757 847 726 685 654 634 639 626 681 693 681 683 646 658 659 671 714 725 849 842 766 763 759 801 791 838 943 913 913 967 1049 1157 1358 1364 1393 1267 901 806 850 899 1025 1003 1012 961 951 993 1094 1119 1026 1051 936 934 980 999 1105 1171 1207 1297 1263 1268 1322 1190 1189 1264 1208 1206 1225 1233 1240 1146 1287 1123 983 989 1012 972 946 971 1029 955 950 864 854 846 827 784 773 770 766 766 764 762 762 760 759 758 759 759 757 758 756 757 758 758 758 756 759 757 758 758 758 757 759 761 776 901 907 896 938 933 1019 1037 1075 1000 991 986 1045 1098 1031 973 1008 1051 983 944 1016 967 985 988 1036 1018 907 912 910 891 850 851 894 902 835 867 900 912 1006 889 853 955 1002 1065 879 838 800 836 618 814 653 599 516 503 234 390 337 217 333 379 291 213 200 197 189 174 246 357 324 207 233 128 123 115 137 113 148 135 262 323 391 173 272 284 202 123 136 146 83 81 66 52 64 55 34 49 39 28 32 35 9 6 6 14 12 0 0 0 0 0 0 0 0 0 0 0 0 0 0 0 0 0 0 0 0 0 0 0 0 0 0 0 0 0 0 0 0 0 0 0 0 0 0 0 0 0 0 0 0 0 0 0 0 0 0 0 0 0 0 0 0 0 0 0 0 0 0 0 0 0 0 0 0 0 0 0 0 0 0 0 0 0 0 0 0 0 0 0 0 0 0 0 0 0 0 0 0 0 0 0 0 0 0 0 0 0 0 0 0 0 0 0 0 0 0 0 0 0 0 0 0 0 0 0 0 0 0 0 0 0 0 0 0 0 0 0
0 0 0 0 0 0 0 0 0 0 0 0 0 0 0 0 0 0 0 0 0 0 0 0 0 0 0 0 0 0 0 0 0 0 0 0 0 0 0 0 0 0 0 0 0 0 0 0 0 0 0 0 0 0 0 0 0 0 0 0 0 0 0 0 0 0 0 0 0 0 0 0 0 0 0 0 0 0 0 0 0 0 0 0 0 0 0 0 0 0 0 0 0 0 0 0 0 0 0 0 0 0 0 0 0 0 0 0 0 0 0 0 0 0 0 0 0 0 0 0 0 0 0 0 0 0 0 0 0 0 0 0 0 0 0 0 0 0 0 0 0 0 0 0 0 0 0 0 0 0 0 0 0 0 0 0 0 0 0 0 0 0 0 0 0 0 0 0 0 0 0 0 0 0 0 0 0 0 0 0 0 0 0 0 0 0 0 0 0 0 0 0 0 0 0 0 0 0 0 0 0 0 0 0 0 0 0 0 0 0 0 0 0 0 0 0 0 0 0 0 0 0 0 0 0 0 0 0 0 0 0 0 0 0 0 0 0 0 0 0 0 11 11 12 12 32 23 16 39 31 51 69 56 53 40 49 32 36 40 52 47 69 56 55 48 90 72 79 96 79 57 54 62 70 96 89 92 84 113 108 126 113 137 159 138 139 182 224 157 174 184 146 124 136 143 154 154 175 161 156 148 142 143 134 135 139 155 154 144 138 171 160 209 180 172 254 231 188 172 382 262 219 228 232 207 200 203 219 324 269 232 325 294 261 291 278 306 326 291 288 273 287 311 309 344 285 300 302 317 328 314 315 322 321 325 313 319 361 341 351 343 342 327 335 337 367 347 370 365 348 337 334 334 334 326 333 343 329 339 392 434 416 397 393 390 402 421 420 393 394 362 356 365 351 405 418 394 373 361 352 367 406 384 334 333 319 320 323 329 519 700 665 666 695 695 735 718 736 610 615 607 618 664 689 671 697 692 692 652 641 632 616 546 542 585 551 537 571 661 731 737 733 710 691 709 725 692 689 723 712 668 658 684 718 693 684 682 723 715 631 581 486 592 664 619 462 430 550 575 472 638 687 555 519 545 568 614 654 659 695 712 722 713 639 741 797 815 793 813 773 797 801 750 753 753 734 767 721 754 740 733 762 699 758 681 696 708 797 700 814 739 670 747 863 883 741 776 803 738 706 660 782 871 966 864 963 1070 955 965 1149 1098 850 758 733 858 842 872 918 921 1023 963 910 796 796 838 819 1075 1223 1256 1250 1247 1189 1307 1240 1035 1076 1019 1046 914 1055 959 856 878 839 836 846 907 914 873 830 730 765 723 703 721 629 657 642 671 634 714 726 684 657 647 682 699 678 681 749 747 854 805 745 983 894 875 927 936 957 1025 1353 1415 1172 1246 1167 1188 895 782 1049 1167 1235 1192 1096 998 1206 1278 1291 1242 1246 1141 1090 945 1110 1175 1168 1120 1121 1269 1288 1291 1352 1239 1222 1238 1250 1272 1238 1262 1235 1069 1236 1003 982 996 980 945 937 975 995 955 892 937 828 798 812 811 772 768 765 764 764 760 761 761 760 758 763 759 757 758 759 758 758 757 760 758 758 758 757 759 758 759 766 762 823 877 951 945 882 989 955 1036 1027 1066 1113 1017 978 1050 1034 1014 1026 990 970 944 1003 978 967 984 982 1069 1033 921 868 862 882 900 850 843 845 898 938 1013 983 840 829 795 777 924 889 724 771 684 769 852 667 451 368 490 523 245 193 251 273 416 357 281 202 172 244 254 320 262 296 185 124 147 134 170 203 156 215 155 402 429 468 238 372 321 136 108 93 84 65 81 30 45 53 57 29 36 26 19 26 13 7 11 6 13 9 0 0 0 0 0 0 0 0 0 0 0 0 0 0 0 0 0 0 0 0 0 0 0 0 0 0 0 0 0 0 0 0 0 0 0 0 0 0 0 0 0 0 0 0 0 0 0 0 0 0 0 0 0 0 0 0 0 0 0 0 0 0 0 0 0 0 0 0 0 0 0 0 0 0 0 0 0 0 0 0 0 0 0 0 0 0 0 0 0 0 0 0 0 0 0 0 0 0 0 0 0 0 0 0 0 0 0 0 0 0 0 0 0 0 0 0 0 0 0 0 0 0 0 0 0 0 0 0 0 0 0
0 0 0 0 0 0 0 0 0 0 0 0 0 0 0 0 0 0 0 0 0 0 0 0 0 0 0 0 0 0 0 0 0 0 0 0 0 0 0 0 0 0 0 0 0 0 0 0 0 0 0 0 0 0 0 0 0 0 0 0 0 0 0 0 0 0 0 0 0 0 0 0 0 0 0 0 0 0 0 0 0 0 0 0 0 0 0 0 0 0 0 0 0 0 0 0 0 0 0 0 0 0 0 0 0 0 0 0 0 0 0 0 0 0 0 0 0 0 0 0 0 0 0 0 0 0 0 0 0 0 0 0 0 0 0 0 0 0 0 0 0 0 0 0 0 0 0 0 0 0 0 0 0 0 0 0 0 0 0 0 0 0 0 0 0 0 0 0 0 0 0 0 0 0 0 0 0 0 0 0 0 0 0 0 0 0 0 0 0 0 0 0 0 0 0 0 0 0 0 0 0 0 0 0 0 0 0 0 0 0 0 0 0 0 0 0 0 0 0 0 0 0 0 0 0 0 0 0 0 0 0 0 0 0 0 0 0 0 0 0 0 0 5 9 18 15 10 15 32 39 52 61 80 57 58 50 30 34 45 46 92 85 115 114 117 75 105 119 132 121 56 52 72 86 76 97 106 89 108 106 130 114 113 136 187 179 234 298 153 167 168 176 121 139 130 168 171 173 155 148 143 161 165 153 123 133 153 125 153 133 158 153 148 160 164 182 197 190 218 210 193 214 197 213 187 210 215 276 239 226 227 286 272 266 299 265 269 279 253 281 266 266 267 287 273 273 282 284 295 314 328 318 294 327 338 333 358 363 351 385 330 325 326 344 369 385 359 325 348 349 329 329 337 321 325 320 317 322 331 368 357 386 421 404 416 465 441 438 438 418 411 381 378 410 414 404 380 365 400 453 443 475 449 399 360 318 341 331 324 469 690 680 657 715 713 716 750 622 615 621 619 665 706 681 692 740 730 720 699 640 698 608 580 598 645 554 508 583 573 628 706 650 697 717 724 701 706 692 695 712 682 694 717 697 686 697 688 741 677 585 507 577 671 657 639 505 438 566 625 588 469 633 545 529 561 671 621 663 692 747 802 797 818 713 776 774 783 787 789 752 763 773 765 899 793 789 770 835 729 832 864 822 750 703 739 713 750 821 824 790 768 747 737 841 799 840 818 763 684 690 620 647 752 827 833 1104 1010 952 936 1064 1127 819 748 741 768 844 870 955 1134 1194 1013 915 925 816 801 829 902 1086 1272 1189 1063 1000 983 1122 1079 1124 1092 1033 1018 975 967 974 902 958 886 863 856 888 882 835 699 692 705 695 661 646 649 666 674 663 643 664 665 721 678 657 665 671 673 703 692 728 951 908 921 1004 1051 1148 1246 1172 1141 1378 1149 986 909 966 875 861 839 1009 1235 1291 1270 1158 1253 1178 1249 1272 1386 1062 1303 1128 949 968 1262 1300 1254 1262 1253 1299 1486 1293 1266 1209 1252 1268 1282 1240 1202 1221 1068 1096 1036 1009 958 998 950 970 934 969 930 849 862 846 847 796 790 797 768 772 766 762 762 761 760 760 760 759 757 760 759 758 758 757 758 757 759 758 758 756 757 761 764 768 773 817 830 856 925 864 904 976 1026 1070 1025 1169 1047 1044 1011 1054 998 967 973 954 929 960 924 954 933 934 945 940 881 887 893 958 921 869 830 851 875 849 893 857 852 776 761 849 700 844 755 798 803 634 571 407 423 598 703 573 459 397 300 390 475 294 240 271 292 198 342 215 155 146 219 168 175 173 202 229 132 189 251 315 405 373 232 175 171 124 114 115 94 106 74 54 65 32 24 20 41 21 34 48 24 14 15 6 13 6 0 0 0 0 0 0 0 0 0 0 0 0 0 0 0 0 0 0 0 0 0 0 0 0 0 0 0 0 0 0 0 0 0 0 0 0 0 0 0 0 0 0 0 0 0 0 0 0 0 0 0 0 0 0 0 0 0 0 0 0 0 0 0 0 0 0 0 0 0 0 0 0 0 0 0 0 0 0 0 0 0 0 0 0 0 0 0 0 0 0 0 0 0 0 0 0 0 0 0 0 0 0 0 0 0 0 0 0 0 0 0 0 0 0 0 0 0 0 0 0 0 0 0 0 0 0 0 0 0 0 0
0 0 0 0 0 0 0 0 0 0 0 0 0 0 0 0 0 0 0 0 0 0 0 0 0 0 0 0 0 0 0 0 0 0 0 0 0 0 0 0 0 0 0 0 0 0 0 0 0 0 0 0 0 0 0 0 0 0 0 0 0 0 0 0 0 0 0 0 0 0 0 0 0 0 0 0 0 0 0 0 0 0 0 0 0 0 0 0 0 0 0 0 0 0 0 0 0 0 0 0 0 0 0 0 0 0 0 0 0 0 0 0 0 0 0 0 0 0 0 0 0 0 0 0 0 0 0 0 0 0 0 0 0 0 0 0 0 0 0 0 0 0 0 0 0 0 0 0 0 0 0 0 0 0 0 0 0 0 0 0 0 0 0 0 0 0 0 0 0 0 0 0 0 0 0 0 0 0 0 0 0 0 0 0 0 0 0 0 0 0 0 0 0 0 0 0 0 0 0 0 0 0 0 0 0 0 0 0 0 0 0 0 0 0 0 0 0 0 0 0 0 0 0 0 0 0 0 0 0 0 0 0 0 0 0 0 0 0 0 0 0 0 0 0 12 24 15 30 22 30 57 68 77 80 77 51 37 40 40 70 88 98 94 76 99 81 106 119 130 99 57 53 81 74 91 100 101 92 97 97 133 137 119 139 173 148 212 218 174 144 136 127 143 121 135 147 167 177 148 149 157 162 150 140 125 153 151 130 130 132 138 150 164 157 163 190 196 179 174 175 201 179 213 186 180 219 221 225 263 222 217 229 266 263 252 274 246 286 257 263 288 280 270 282 280 280 287 267 289 307 291 305 274 304 310 345 386 388 367 366 311 295 311 341 328 319 331 311 315 319 346 338 327 332 333 317 317 322 343 459 417 429 416 460 438 447 448 479 506 476 490 483 451 530 541 471 412 444 460 487 483 498 474 372 386 352 326 325 326 432 719 720 701 721 746 714 692 632 640 702 668 711 697 692 710 717 741 750 707 641 696 649 638 621 666 549 534 525 599 660 625 670 738 721 755 716 711 704 715 714 694 693 713 712 693 711 693 728 689 567 550 649 702 731 652 487 441 519 644 663 633 650 532 579 633 661 715 681 745 819 829 798 814 783 777 800 798 782 763 767 754 791 756 813 915 781 788 825 764 759 731 716 766 823 772 754 833 841 814 830 842 799 720 888 805 801 745 747 790 715 629 821 798 770 792 837 883 925 866 945 1061 768 756 765 785 809 811 943 1031 1114 1102 919 1045 840 809 804 852 990 1146 1028 958 873 1016 1127 1060 1178 1228 1177 944 939 924 1007 902 883 886 838 824 866 834 768 678 706 694 661 686 684 655 683 741 653 671 669 679 725 678 667 677 674 692 707 687 736 894 1013 969 1032 1183 1357 1337 1302 1455 1349 1089 998 1009 1052 979 838 881 1072 1203 1179 1364 1325 1397 1223 1287 1359 1203 1035 1066 983 958 965 1258 1310 1337 1295 1270 1428 1477 1362 1266 1248 1232 1242 1326 1283 1166 1120 1026 1085 1009 1030 1011 943 967 977 947 966 911 864 846 855 837 797 792 801 795 781 779 761 760 760 760 760 760 760 759 759 759 757 786 759 758 759 758 760 759 760 759 760 766 770 777 817 846 838 892 889 1002 992 1044 1094 1112 1090 1064 1038 1084 1106 1015 960 966 938 928 955 940 998 910 960 936 926 902 945 955 957 951 879 950 930 825 837 892 809 794 866 792 942 874 698 657 777 744 499 628 548 451 791 736 672 378 303 339 481 328 200 189 370 418 249 400 280 175 223 125 168 160 177 254 268 170 172 180 412 470 477 316 227 242 214 160 183 93 83 71 52 35 20 46 17 35 13 37 25 22 11 16 16 6 6 0 0 0 0 0 0 0 0 0 0 0 0 0 0 0 0 0 0 0 0 0 0 0 0 0 0 0 0 0 0 0 0 0 0 0 0 0 0 0 0 0 0 0 0 0 0 0 0 0 0 0 0 0 0 0 0 0 0 0 0 0 0 0 0 0 0 0 0 0 0 0 0 0 0 0 0 0 0 0 0 0 0 0 0 0 0 0 0 0 0 0 0 0 0 0 0 0 0 0 0 0 0 0 0 0 0 0 0 0 0 0 0 0 0 0 0 0 0 0 0 0 0 0 0 0 0 0 0 0 0 0
0 0 0 0 0 0 0 0 0 0 0 0 0 0 0 0 0 0 0 0 0 0 0 0 0 0 0 0 0 0 0 0 0 0 0 0 0 0 0 0 0 0 0 0 0 0 0 0 0 0 0 0 0 0 0 0 0 0 0 0 0 0 0 0 0 0 0 0 0 0 0 0 0 0 0 0 0 0 0 0 0 0 0 0 0 0 0 0 0 0 0 0 0 0 0 0 0 0 0 0 0 0 0 0 0 0 0 0 0 0 0 0 0 0 0 0 0 0 0 0 0 0 0 0 0 0 0 0 0 0 0 0 0 0 0 0 0 0 0 0 0 0 0 0 0 0 0 0 0 0 0 0 0 0 0 0 0 0 0 0 0 0 0 0 0 0 0 0 0 0 0 0 0 0 0 0 0 0 0 0 0 0 0 0 0 0 0 0 0 0 0 0 0 0 0 0 0 0 0 0 0 0 0 0 0 0 0 0 0 0 0 0 0 0 0 0 0 0 0 0 0 0 0 0 0 0 0 0 0 0 0 0 0 0 0 0 0 0 0 0 0 0 0 7 10 21 36 43 39 34 46 71 58 87 55 40 45 47 41 51 87 106 68 72 105 123 142 130 146 97 84 66 82 81 111 122 97 106 119 104 116 141 142 149 163 137 208 207 179 170 141 155 145 123 125 141 153 166 158 153 156 156 157 159 132 160 142 146 138 128 152 149 143 160 164 194 197 194 179 196 188 215 225 231 191 258 225 230 281 216 211 253 225 243 244 255 253 278 240 274 279 292 255 269 266 255 285 283 295 300 299 303 282 288 286 306 304 320 314 312 314 295 305 299 298 314 330 314 300 307 345 339 329 322 330 327 326 334 328 485 494 489 448 478 462 461 509 485 517 509 483 431 546 553 580 543 458 485 487 489 477 475 456 420 389 400 358 331 330 388 468 598 696 700 746 711 681 631 678 717 698 736 729 716 770 718 753 715 680 694 689 682 626 627 585 577 534 584 627 598 591 632 767 774 757 724 743 734 770 743 724 715 685 692 707 727 736 730 638 496 665 701 710 702 662 473 468 578 656 699 641 620 541 651 642 689 703 713 805 820 804 790 801 765 764 766 777 757 780 784 757 761 772 814 820 855 938 887 765 731 779 802 716 787 815 749 847 1001 850 808 799 777 724 820 796 849 740 760 824 676 706 859 811 823 923 783 803 835 834 881 1038 880 786 784 778 815 817 858 996 1086 1102 945 1036 882 840 836 873 842 915 860 860 1020 1160 1093 1121 1378 1235 1024 953 891 873 1004 948 906 878 902 872 807 746 781 729 674 680 673 650 642 653 763 959 906 1005 1034 834 831 786 675 687 686 700 718 700 731 771 910 1030 1188 1207 1368 1462 1465 1398 1352 1290 1206 1281 1159 1045 855 888 1143 1070 1144 1226 1312 1405 1376 1333 1386 1094 1017 1014 1040 1044 997 1154 1302 1309 1270 1279 1312 1436 1421 1242 1262 1280 1266 1279 1236 1016 998 1009 995 1021 1007 951 944 964 951 935 940 911 852 869 854 795 773 799 784 788 785 763 760 761 760 761 760 759 759 760 760 761 758 769 759 827 766 759 760 759 760 759 762 765 766 767 792 866 864 846 953 945 1139 1145 1117 1080 1054 1148 1072 1070 1037 1016 997 938 939 928 962 952 910 962 961 951 958 913 980 959 973 941 889 919 1045 870 942 885 889 893 906 772 909 871 701 623 681 649 694 667 641 485 772 587 518 323 493 335 443 425 354 199 338 429 288 240 350 165 156 197 177 136 228 197 176 153 219 232 413 590 512 452 383 294 214 169 145 117 103 92 35 29 67 34 13 26 19 24 37 31 11 7 9 8 13 0 0 0 0 0 0 0 0 0 0 0 0 0 0 0 0 0 0 0 0 0 0 0 0 0 0 0 0 0 0 0 0 0 0 0 0 0 0 0 0 0 0 0 0 0 0 0 0 0 0 0 0 0 0 0 0 0 0 0 0 0 0 0 0 0 0 0 0 0 0 0 0 0 0 0 0 0 0 0 0 0 0 0 0 0 0 0 0 0 0 0 0 0 0 0 0 0 0 0 0 0 0 0 0 0 0 0 0 0 0 0 0 0 0 0 0 0 0 0 0 0 0 0 0 0 0 0 0 0 0 0
0 0 0 0 0 0 0 0 0 0 0 0 0 0 0 0 0 0 0 0 0 0 0 0 0 0 0 0 0 0 0 0 0 0 0 0 0 0 0 0 0 0 0 0 0 0 0 0 0 0 0 0 0 0 0 0 0 0 0 0 0 0 0 0 0 0 0 0 0 0 0 0 0 0 0 0 0 0 0 0 0 0 0 0 0 0 0 0 0 0 0 0 0 0 0 0 0 0 0 0 0 0 0 0 0 0 0 0 0 0 0 0 0 0 0 0 0 0 0 0 0 0 0 0 0 0 0 0 0 0 0 0 0 0 0 0 0 0 0 0 0 0 0 0 0 0 0 0 0 0 0 0 0 0 0 0 0 0 0 0 0 0 0 0 0 0 0 0 0 0 0 0 0 0 0 0 0 0 0 0 0 0 0 0 0 0 0 0 0 0 0 0 0 0 0 0 0 0 0 0 0 0 0 0 0 0 0 0 0 0 0 0 0 0 0 0 0 0 0 0 0 0 0 0 0 0 0 0 0 0 0 0 0 0 0 0 0 0 0 0 0 0 0 9 31 50 40 27 20 37 58 71 83 93 57 44 72 79 52 48 49 106 57 75 86 109 105 119 114 109 94 125 100 95 111 124 146 141 132 145 125 146 150 162 216 162 259 208 177 157 184 154 162 140 130 140 141 153 163 166 153 147 150 151 156 193 166 170 141 147 167 168 155 156 159 184 240 199 189 206 180 209 205 263 195 195 210 222 224 212 213 226 220 266 270 247 269 267 253 264 256 274 238 248 246 245 284 282 280 293 289 288 280 263 277 263 258 273 294 287 324 276 285 301 299 326 317 296 313 326 345 350 332 334 326 316 309 322 314 444 539 517 458 466 490 463 483 548 558 501 485 504 573 570 594 594 501 505 505 497 463 462 471 429 443 446 383 380 343 383 567 739 740 725 717 720 723 659 740 756 746 755 717 725 742 785 755 675 664 678 707 613 615 614 540 513 506 574 572 605 635 656 648 721 736 749 754 739 740 753 760 702 700 696 707 727 628 578 533 616 746 743 794 733 564 461 559 681 733 742 712 662 586 696 770 686 788 818 842 826 822 795 772 792 771 767 794 803 793 799 785 766 768 772 887 1014 860 801 742 771 745 792 783 825 835 784 800 879 908 919 862 772 794 756 785 768 710 790 821 692 656 757 808 803 810 753 831 884 1126 905 1002 1026 774 860 831 786 808 825 962 1148 1095 1030 1071 1046 837 989 857 838 863 855 855 975 1376 1183 1233 1431 1270 1193 954 911 872 872 956 907 924 896 879 829 816 772 752 773 887 700 658 698 1040 1276 1212 1176 1202 1241 1229 1059 946 809 752 698 794 749 720 825 742 840 931 934 1078 1275 1332 1486 1455 1342 1320 1207 1071 1067 974 1010 883 961 1082 1213 1232 1268 1296 1369 1346 1235 1030 1104 1133 1219 1169 976 973 1047 1316 1284 1336 1356 1494 1102 1172 1307 1251 1244 1179 1213 1048 1031 984 981 1025 1023 1011 965 975 938 968 953 946 912 886 786 776 773 774 776 781 787 763 761 761 760 759 759 761 760 761 762 759 760 784 788 791 779 764 761 761 760 761 760 761 766 768 773 821 802 938 908 997 1057 1249 1285 1182 1132 1137 1049 1033 1018 963 989 960 959 974 994 921 929 961 1008 994 953 972 945 961 945 881 1033 1072 941 887 1037 995 935 838 865 910 965 649 756 806 868 1016 868 753 543 656 838 742 358 543 579 630 645 522 299 314 299 516 259 353 254 271 137 150 175 142 237 160 191 177 303 339 502 468 373 228 323 283 189 132 87 90 129 60 63 61 69 41 57 32 15 22 27 9 7 11 10 18 0 0 0 0 0 0 0 0 0 0 0 0 0 0 0 0 0 0 0 0 0 0 0 0 0 0 0 0 0 0 0 0 0 0 0 0 0 0 0 0 0 0 0 0 0 0 0 0 0 0 0 0 0 0 0 0 0 0 0 0 0 0 0 0 0 0 0 0 0 0 0 0 0 0 0 0 0 0 0 0 0 0 0 0 0 0 0 0 0 0 0 0 0 0 0 0 0 0 0 0 0 0 0 0 0 0 0 0 0 0 0 0 0 0 0 0 0 0 0 0 0 0 0 0 0 0 0 0 0 0 0 0
0 0 0 0 0 0 0 0 0 0 0 0 0 0 0 0 0 0 0 0 0 0 0 0 0 0 0 0 0 0 0 0 0 0 0 0 0 0 0 0 0 0 0 0 0 0 0 0 0 0 0 0 0 0 0 0 0 0 0 0 0 0 0 0 0 0 0 0 0 0 0 0 0 0 0 0 0 0 0 0 0 0 0 0 0 0 0 0 0 0 0 0 0 0 0 0 0 0 0 0 0 0 0 0 0 0 0 0 0 0 0 0 0 0 0 0 0 0 0 0 0 0 0 0 0 0 0 0 0 0 0 0 0 0 0 0 0 0 0 0 0 0 0 0 0 0 0 0 0 0 0 0 0 0 0 0 0 0 0 0 0 0 0 0 0 0 0 0 0 0 0 0 0 0 0 0 0 0 0 0 0 0 0 0 0 0 0 0 0 0 0 0 0 0 0 0 0 0 0 0 0 0 0 0 0 0 0 0 0 0 0 0 0 0 0 0 0 0 0 0 0 0 0 0 0 0 0 0 0 0 0 0 0 0 0 0 0 0 0 0 0 0 0 0 37 44 30 34 34 39 72 70 72 62 70 63 82 80 61 54 40 48 49 63 70 126 91 103 100 97 123 128 119 128 110 127 130 125 140 153 141 156 167 203 242 194 192 207 281 168 173 158 167 157 142 127 151 153 173 169 184 148 142 143 136 168 197 191 132 131 140 158 144 181 169 187 230 186 203 199 208 206 231 223 210 197 210 207 200 202 237 207 245 223 254 243 227 243 237 234 261 251 255 250 244 251 295 282 283 282 280 276 281 268 253 251 255 274 275 275 285 262 270 291 284 306 295 289 327 332 327 322 323 318 327 320 317 309 319 500 494 517 469 459 467 510 528 571 546 505 482 505 591 591 605 618 509 505 533 515 528 481 511 501 444 474 447 409 422 346 449 532 699 736 741 734 712 716 751 745 758 785 787 778 762 670 677 655 641 675 641 629 556 626 574 514 548 558 568 608 637 609 609 647 690 729 758 685 771 786 778 725 721 695 707 641 580 559 535 660 752 739 770 640 587 552 719 734 765 738 801 833 559 664 782 820 808 843 826 802 813 784 787 797 795 787 825 814 786 787 755 799 807 873 832 944 981 803 787 779 732 772 780 822 926 842 801 880 829 848 836 763 739 731 734 733 751 793 859 643 761 761 741 748 743 751 792 845 982 1023 1061 1072 771 870 926 784 794 885 1144 1252 1082 1082 1147 1184 902 883 860 849 1134 1009 880 926 1001 1077 1355 1175 977 1243 970 952 878 837 908 876 850 870 838 868 873 772 845 948 816 688 679 811 1230 1200 1126 1108 1166 1155 1262 1350 1106 1044 841 747 758 875 787 745 759 731 980 838 1013 1248 1382 1403 1486 1382 1302 1270 1061 1029 925 878 901 1046 1077 1158 1303 1348 1296 1261 1188 1093 1141 1197 1219 1261 1126 1067 1037 1009 1080 1228 1299 1416 1122 1116 1176 1133 1186 1262 1119 1199 1038 1021 1006 990 977 980 987 1008 934 968 953 943 911 903 881 849 793 772 768 767 793 765 762 762 763 762 761 761 761 761 762 763 762 762 787 773 830 808 764 763 761 763 762 762 763 766 770 779 782 835 991 908 1025 1063 1216 1319 1326 1244 1232 1056 973 954 1001 979 946 979 1003 980 939 928 960 993 954 964 969 992 926 896 960 1080 1028 929 947 1014 1027 884 906 930 952 901 692 828 732 998 1033 874 583 530 663 813 686 454 646 616 600 648 440 422 387 462 564 272 501 326 226 157 166 204 257 235 182 218 349 329 507 393 300 305 303 207 184 121 102 125 115 107 63 27 74 90 83 24 31 18 15 13 47 12 9 11 15 0 0 0 0 0 0 0 0 0 0 0 0 0 0 0 0 0 0 0 0 0 0 0 0 0 0 0 0 0 0 0 0 0 0 0 0 0 0 0 0 0 0 0 0 0 0 0 0 0 0 0 0 0 0 0 0 0 0 0 0 0 0 0 0 0 0 0 0 0 0 0 0 0 0 0 0 0 0 0 0 0 0 0 0 0 0 0 0 0 0 0 0 0 0 0 0 0 0 0 0 0 0 0 0 0 0 0 0 0 0 0 0 0 0 0 0 0 0 0 0 0 0 0 0 0 0 0 0 0 0 0 0
0 0 0 0 0 0 0 0 0 0 0 0 0 0 0 0 0 0 0 0 0 0 0 0 0 0 0 0 0 0 0 0 0 0 0 0 0 0 0 0 0 0 0 0 0 0 0 0 0 0 0 0 0 0 0 0 0 0 0 0 0 0 0 0 0 0 0 0 0 0 0 0 0 0 0 0 0 0 0 0 0 0 0 0 0 0 0 0 0 0 0 0 0 0 0 0 0 0 0 0 0 0 0 0 0 0 0 0 0 0 0 0 0 0 0 0 0 0 0 0 0 0 0 0 0 0 0 0 0 0 0 0 0 0 0 0 0 0 0 0 0 0 0 0 0 0 0 0 0 0 0 0 0 0 0 0 0 0 0 0 0 0 0 0 0 0 0 0 0 0 0 0 0 0 0 0 0 0 0 0 0 0 0 0 0 0 0 0 0 0 0 0 0 0 0 0 0 0 0 0 0 0 0 0 0 0 0 0 0 0 0 0 0 0 0 0 0 0 0 0 0 0 0 0 0 0 0 0 0 0 0 0 0 0 0 0 0 0 0 0 0 0 0 0 48 31 32 48 29 44 63 71 63 40 54 75 65 86 101 43 33 57 73 66 78 122 90 82 80 91 83 109 93 112 98 94 106 120 138 144 162 161 198 228 259 191 265 216 257 171 169 185 196 179 149 143 169 159 177 201 171 161 154 150 166 163 192 209 145 137 135 144 152 155 183 199 231 223 192 208 195 205 226 223 224 201 198 193 279 213 200 209 204 212 226 218 228 256 245 252 272 241 268 240 261 268 298 262 279 291 267 256 264 256 251 246 250 265 270 267 273 266 264 288 294 304 304 283 294 299 332 321 311 333 321 310 311 316 320 466 503 514 490 476 462 514 530 553 558 486 486 469 581 597 605 612 563 534 509 539 497 522 516 443 503 479 469 410 398 355 534 664 663 732 735 729 722 745 772 779 802 807 753 751 785 705 699 656 650 655 618 630 596 560 520 550 552 627 583 607 620 595 626 618 729 753 713 705 766 762 787 734 733 683 700 611 667 537 583 745 753 799 772 708 528 471 799 795 790 832 843 838 635 574 761 837 837 814 826 813 797 806 800 806 814 812 798 826 808 764 796 785 819 878 841 873 931 854 753 737 786 772 830 863 1132 941 964 1108 1003 944 914 890 828 749 743 798 715 885 890 704 659 750 749 735 788 821 794 820 1008 1118 1003 1077 848 869 930 797 797 895 1221 1257 1088 1091 1168 1207 927 923 903 968 1263 970 881 873 888 1047 1221 1017 936 1012 1005 982 903 883 838 847 953 876 859 881 784 779 832 951 809 835 650 862 1203 1093 1079 1115 1137 1152 1314 1272 1330 1158 943 739 802 880 774 723 766 824 811 835 939 1140 1046 1194 1222 1308 1182 990 1008 977 1004 1049 878 1128 1239 1220 1318 1301 1182 1104 1107 1120 1208 1272 1287 1280 1150 1048 983 1068 1052 1087 1223 1316 1116 1112 1106 1162 1259 1210 1174 1082 1025 1017 1022 1022 1028 971 935 956 957 943 920 968 939 906 904 812 832 770 765 764 764 766 762 761 761 761 762 762 761 762 762 761 763 761 761 797 823 778 788 772 765 764 763 764 766 767 771 776 788 910 967 987 1003 1049 1076 1187 1201 1151 1066 1098 1008 1054 979 1074 1016 987 966 937 1032 959 1003 1028 979 1016 1045 960 940 874 940 1006 987 962 1139 984 994 887 970 953 973 786 819 884 807 1111 1009 797 557 576 780 895 569 600 670 779 798 619 459 473 514 599 471 385 345 199 203 249 202 153 242 300 338 280 415 506 426 399 438 346 200 156 163 176 172 196 80 39 33 63 120 112 95 45 20 26 28 12 38 25 20 12 14 0 0 0 0 0 0 0 0 0 0 0 0 0 0 0 0 0 0 0 0 0 0 0 0 0 0 0 0 0 0 0 0 0 0 0 0 0 0 0 0 0 0 0 0 0 0 0 0 0 0 0 0 0 0 0 0 0 0 0 0 0 0 0 0 0 0 0 0 0 0 0 0 0 0 0 0 0 0 0 0 0 0 0 0 0 0 0 0 0 0 0 0 0 0 0 0 0 0 0 0 0 0 0 0 0 0 0 0 0 0 0 0 0 0 0 0 0 0 0 0 0 0 0 0 0 0 0 0 0 0 0 0
0 0 0 0 0 0 0 0 0 0 0 0 0 0 0 0 0 0 0 0 0 0 0 0 0 0 0 0 0 0 0 0 0 0 0 0 0 0 0 0 0 0 0 0 0 0 0 0 0 0 0 0 0 0 0 0 0 0 0 0 0 0 0 0 0 0 0 0 0 0 0 0 0 0 0 0 0 0 0 0 0 0 0 0 0 0 0 0 0 0 0 0 0 0 0 0 0 0 0 0 0 0 0 0 0 0 0 0 0 0 0 0 0 0 0 0 0 0 0 0 0 0 0 0 0 0 0 0 0 0 0 0 0 0 0 0 0 0 0 0 0 0 0 0 0 0 0 0 0 0 0 0 0 0 0 0 0 0 0 0 0 0 0 0 0 0 0 0 0 0 0 0 0 0 0 0 0 0 0 0 0 0 0 0 0 0 0 0 0 0 0 0 0 0 0 0 0 0 0 0 0 0 0 0 0 0 0 0 0 0 0 0 0 0 0 0 0 0 0 0 0 0 0 0 0 0 0 0 0 0 0 0 0 0 0 0 0 0 0 0 0 0 0 0 22 35 16 52 26 52 78 35 31 30 61 54 58 92 52 36 29 43 66 78 88 81 93 59 71 68 79 78 81 87 100 102 124 143 143 157 189 207 197 239 274 229 186 227 309 204 166 202 183 169 159 137 164 161 184 191 217 163 159 153 159 192 193 182 176 143 137 149 160 177 171 206 223 211 206 198 205 208 244 263 228 198 212 193 268 225 207 212 219 199 202 206 213 217 244 274 269 268 253 239 255 247 265 267 272 272 263 259 269 247 238 251 247 264 254 251 262 287 272 288 285 273 275 296 303 307 329 327 318 311 314 303 305 308 313 477 478 550 541 488 501 524 525 499 552 501 466 512 590 603 605 614 567 558 529 529 557 550 559 506 487 515 512 456 486 409 468 679 751 737 727 738 746 748 792 831 829 765 737 726 690 723 669 686 681 633 666 708 708 618 663 608 513 541 619 612 596 596 649 652 735 654 660 649 723 772 769 778 710 692 718 732 658 582 725 774 776 805 804 711 506 559 542 844 806 877 903 847 805 818 620 830 836 827 802 815 800 809 803 779 821 800 796 770 828 764 805 785 826 937 879 898 866 962 782 814 805 814 819 872 1079 1050 1148 1010 1248 1176 1056 921 815 732 785 807 743 740 985 720 668 730 842 802 830 847 869 893 1212 1207 1015 1165 896 808 1159 952 791 920 1214 1359 1117 1095 1181 1140 921 1115 889 885 903 979 954 1001 1071 1145 1022 911 901 886 1191 1023 935 868 918 848 943 889 873 869 851 807 800 822 915 884 681 839 1140 1122 1105 1115 1072 1117 1292 1326 1402 1346 933 819 790 956 816 740 740 820 1087 1053 960 1090 1233 1039 967 954 965 939 975 973 1081 1059 986 1132 1033 1136 1133 1183 1223 1190 1246 1195 1297 1298 1243 1329 1214 1019 1015 1049 1022 1043 1089 1292 1082 1097 1140 1202 1231 1210 1139 1100 1058 1045 997 1004 1040 1000 944 969 971 947 931 965 939 901 887 825 810 816 765 764 765 763 763 764 764 762 762 762 762 777 764 764 765 765 765 806 817 776 794 769 766 766 765 778 765 771 773 774 825 833 973 1051 1049 1057 1124 1123 1200 1078 1035 1051 1057 1066 1084 1072 1022 1019 986 969 1016 933 1009 998 1089 1029 1014 949 958 938 939 945 1110 1104 1079 1013 988 961 921 964 938 921 842 994 893 996 865 646 629 841 861 689 818 804 659 696 732 566 453 373 438 388 326 288 192 274 370 305 181 212 261 455 470 492 514 444 336 276 336 298 208 122 120 210 154 106 73 86 50 108 191 112 86 55 25 42 77 41 90 66 9 17 0 0 0 0 0 0 0 0 0 0 0 0 0 0 0 0 0 0 0 0 0 0 0 0 0 0 0 0 0 0 0 0 0 0 0 0 0 0 0 0 0 0 0 0 0 0 0 0 0 0 0 0 0 0 0 0 0 0 0 0 0 0 0 0 0 0 0 0 0 0 0 0 0 0 0 0 0 0 0 0 0 0 0 0 0 0 0 0 0 0 0 0 0 0 0 0 0 0 0 0 0 0 0 0 0 0 0 0 0 0 0 0 0 0 0 0 0 0 0 0 0 0 0 0 0 0 0 0 0 0 0 0 0
0 0 0 0 0 0 0 0 0 0 0 0 0 0 0 0 0 0 0 0 0 0 0 0 0 0 0 0 0 0 0 0 0 0 0 0 0 0 0 0 0 0 0 0 0 0 0 0 0 0 0 0 0 0 0 0 0 0 0 0 0 0 0 0 0 0 0 0 0 0 0 0 0 0 0 0 0 0 0 0 0 0 0 0 0 0 0 0 0 0 0 0 0 0 0 0 0 0 0 0 0 0 0 0 0 0 0 0 0 0 0 0 0 0 0 0 0 0 0 0 0 0 0 0 0 0 0 0 0 0 0 0 0 0 0 0 0 0 0 0 0 0 0 0 0 0 0 0 0 0 0 0 0 0 0 0 0 0 0 0 0 0 0 0 0 0 0 0 0 0 0 0 0 0 0 0 0 0 0 0 0 0 0 0 0 0 0 0 0 0 0 0 0 0 0 0 0 0 0 0 0 0 0 0 0 0 0 0 0 0 0 0 0 0 0 0 0 0 0 0 0 0 0 0 0 0 0 0 0 0 0 0 0 0 0 0 0 0 0 0 0 0 0 0 39 40 13 45 35 56 73 41 51 29 33 58 66 60 38 35 26 38 54 73 78 49 57 61 52 57 68 58 85 87 95 105 130 138 128 136 152 183 180 236 261 202 169 204 297 235 186 194 167 172 170 171 172 171 178 197 183 161 145 149 174 174 181 181 182 139 147 156 157 268 188 210 227 202 210 210 205 217 248 246 227 206 248 215 260 219 216 223 200 202 209 211 211 226 273 263 300 269 253 219 228 248 286 268 263 262 269 273 236 245 238 240 256 251 265 266 261 264 262 276 287 279 300 293 311 330 323 318 318 304 311 305 319 325 310 391 516 545 550 508 544 531 524 522 527 549 493 515 556 603 606 616 570 546 527 538 608 540 540 487 513 535 508 525 584 406 473 686 755 739 736 737 745 772 813 808 806 785 777 778 729 766 690 666 676 640 652 779 798 753 721 572 552 537 579 616 604 599 633 622 642 621 621 658 746 759 777 801 737 707 757 794 770 653 791 801 862 861 817 730 589 561 716 758 877 872 863 868 846 828 787 838 825 826 815 786 798 805 809 790 787 813 809 789 766 791 783 765 815 901 897 912 890 937 815 811 799 842 848 955 957 969 1081 1181 1076 1223 1149 960 847 734 777 822 803 868 962 687 661 746 981 950 894 843 847 844 962 1141 1145 1208 931 1005 1127 1031 795 900 1169 1219 1162 1079 1266 1236 983 1255 987 914 895 890 967 985 1129 1132 1041 939 895 899 1262 1044 949 971 841 823 1002 894 890 852 857 781 752 823 907 835 839 745 1205 1130 1049 1097 1054 1099 1208 1231 1261 1242 938 839 798 921 803 839 772 784 898 1105 1117 1139 1236 1207 1058 1050 1046 1011 1123 1090 1146 951 969 1040 941 1170 1168 1236 1330 1265 1336 1224 1340 1305 1341 1277 1154 1048 1035 1072 1205 1082 1083 1247 1061 1093 1104 1211 1254 1214 1140 1147 1038 1004 1026 964 1023 982 963 965 923 903 906 920 909 848 848 802 789 769 783 763 764 787 796 772 764 764 762 763 763 762 764 766 767 769 767 772 797 765 772 768 768 767 816 764 779 773 777 780 895 928 941 1001 1054 1066 1092 1152 1097 1119 1099 1023 1025 1094 1030 1097 1070 1031 1068 975 1030 941 1013 1037 1112 1120 943 1000 903 946 1031 958 1102 1132 1105 1032 1059 1022 897 924 955 921 998 1111 895 960 935 687 785 970 843 847 894 758 481 579 615 533 401 463 339 375 326 287 237 267 546 283 210 234 275 460 637 393 479 410 324 291 189 163 161 224 226 126 110 100 115 87 88 102 107 79 53 46 42 16 58 57 24 19 15 14 0 0 0 0 0 0 0 0 0 0 0 0 0 0 0 0 0 0 0 0 0 0 0 0 0 0 0 0 0 0 0 0 0 0 0 0 0 0 0 0 0 0 0 0 0 0 0 0 0 0 0 0 0 0 0 0 0 0 0 0 0 0 0 0 0 0 0 0 0 0 0 0 0 0 0 0 0 0 0 0 0 0 0 0 0 0 0 0 0 0 0 0 0 0 0 0 0 0 0 0 0 0 0 0 0 0 0 0 0 0 0 0 0 0 0 0 0 0 0 0 0 0 0 0 0 0 0 0 0 0 0 0 0
0 0 0 0 0 0 0 0 0 0 0 0 0 0 0 0 0 0 0 0 0 0 0 0 0 0 0 0 0 0 0 0 0 0 0 0 0 0 0 0 0 0 0 0 0 0 0 0 0 0 0 0 0 0 0 0 0 0 0 0 0 0 0 0 0 0 0 0 0 0 0 0 0 0 0 0 0 0 0 0 0 0 0 0 0 0 0 0 0 0 0 0 0 0 0 0 0 0 0 0 0 0 0 0 0 0 0 0 0 0 0 0 0 0 0 0 0 0 0 0 0 0 0 0 0 0 0 0 0 0 0 0 0 0 0 0 0 0 0 0 0 0 0 0 0 0 0 0 0 0 0 0 0 0 0 0 0 0 0 0 0 0 0 0 0 0 0 0 0 0 0 0 0 0 0 0 0 0 0 0 0 0 0 0 0 0 0 0 0 0 0 0 0 0 0 0 0 0 0 0 0 0 0 0 0 0 0 0 0 0 0 0 0 0 0 0 0 0 0 0 0 0 0 0 0 0 0 0 0 0 0 0 0 0 0 0 0 0 0 0 0 0 0 0 40 25 8 28 41 58 55 31 27 28 45 41 41 56 31 40 24 34 101 81 47 44 40 42 65 67 82 83 82 101 102 120 127 130 104 132 151 162 170 221 238 190 195 178 235 240 243 198 186 182 176 175 205 209 198 180 162 161 156 158 164 192 209 218 162 139 242 300 225 162 181 188 218 212 230 236 208 224 255 238 223 207 223 246 266 246 236 209 220 217 205 229 224 235 240 250 263 292 262 217 237 243 270 278 276 261 265 256 230 239 252 257 256 247 258 278 283 264 277 281 275 335 292 294 294 314 323 319 305 309 304 312 321 318 325 520 488 538 542 534 539 544 555 513 555 526 512 568 539 589 603 595 574 552 571 546 566 543 531 506 568 550 572 635 640 478 464 631 692 739 755 763 748 767 818 845 806 750 734 768 813 732 686 684 718 673 709 723 851 779 637 559 596 532 570 608 606 572 612 617 623 621 620 659 698 762 782 724 714 716 764 772 744 749 826 821 869 887 849 605 593 741 820 823 906 899 847 837 831 824 809 820 831 821 812 803 817 777 784 765 797 805 766 771 772 793 797 806 789 885 887 899 988 988 795 834 803 803 811 855 952 976 981 890 915 920 938 1067 952 740 798 884 829 859 970 699 686 747 1028 851 787 801 790 804 823 817 927 992 996 1032 1075 1055 803 904 1172 950 1102 1122 1363 1338 1046 1373 1099 1270 1102 907 891 983 1084 1060 1183 1006 918 883 1128 1073 911 841 851 812 824 935 921 895 793 781 806 770 842 738 701 687 1095 1017 1013 1083 1088 1205 1271 1294 1310 1270 954 853 859 945 890 859 794 859 1121 1170 1340 1425 1257 1202 1092 1026 1160 986 1125 1130 1128 949 945 1051 985 1180 1275 1358 1344 1456 1361 1323 1308 1383 1347 1278 1332 1201 1022 1086 1099 1232 1085 1046 1053 1079 1091 1173 1254 1181 1196 1090 982 1024 971 988 932 968 960 905 928 970 954 927 918 817 808 800 804 796 788 764 765 767 803 776 766 767 765 764 765 766 780 772 767 772 770 789 836 766 768 769 770 770 768 773 833 794 812 786 832 1047 988 966 1024 1103 1077 1150 1107 1094 1062 1010 1082 1135 1109 1078 1048 1055 1034 1004 1020 976 1018 1179 1213 999 1000 1028 906 960 1006 984 1158 1117 1115 1035 1065 1007 946 891 937 1030 1152 1057 1026 997 930 766 753 861 899 757 641 498 443 462 419 404 522 704 403 440 313 430 249 455 381 190 200 281 437 568 460 313 361 286 316 299 252 307 307 295 231 194 137 138 112 99 119 150 118 59 53 40 40 40 30 26 20 40 40 2 0 0 0 0 0 0 0 0 0 0 0 0 0 0 0 0 0 0 0 0 0 0 0 0 0 0 0 0 0 0 0 0 0 0 0 0 0 0 0 0 0 0 0 0 0 0 0 0 0 0 0 0 0 0 0 0 0 0 0 0 0 0 0 0 0 0 0 0 0 0 0 0 0 0 0 0 0 0 0 0 0 0 0 0 0 0 0 0 0 0 0 0 0 0 0 0 0 0 0 0 0 0 0 0 0 0 0 0 0 0 0 0 0 0 0 0 0 0 0 0 0 0 0 0 0 0 0 0 0 0 0 0 0
0 0 0 0 0 0 0 0 0 0 0 0 0 0 0 0 0 0 0 0 0 0 0 0 0 0 0 0 0 0 0 0 0 0 0 0 0 0 0 0 0 0 0 0 0 0 0 0 0 0 0 0 0 0 0 0 0 0 0 0 0 0 0 0 0 0 0 0 0 0 0 0 0 0 0 0 0 0 0 0 0 0 0 0 0 0 0 0 0 0 0 0 0 0 0 0 0 0 0 0 0 0 0 0 0 0 0 0 0 0 0 0 0 0 0 0 0 0 0 0 0 0 0 0 0 0 0 0 0 0 0 0 0 0 0 0 0 0 0 0 0 0 0 0 0 0 0 0 0 0 0 0 0 0 0 0 0 0 0 0 0 0 0 0 0 0 0 0 0 0 0 0 0 0 0 0 0 0 0 0 0 0 0 0 0 0 0 0 0 0 0 0 0 0 0 0 0 0 0 0 0 0 0 0 0 0 0 0 0 0 0 0 0 0 0 0 0 0 0 0 0 0 0 0 0 0 0 0 0 0 0 0 0 0 0 0 0 0 0 0 0 0 0 26 23 9 18 36 44 54 45 25 28 30 32 28 48 30 13 20 23 51 52 62 47 40 38 45 55 67 72 80 89 111 124 133 109 107 97 119 142 135 181 191 198 166 191 178 241 239 275 233 227 209 164 191 217 218 199 190 181 161 157 156 176 203 196 189 157 170 149 151 153 156 166 191 231 235 215 225 233 222 264 238 225 231 251 249 233 230 216 213 230 206 212 244 245 234 232 260 224 251 251 219 231 274 257 300 272 241 275 251 228 252 264 262 275 321 286 267 283 272 291 275 280 278 333 279 290 311 323 308 320 298 308 317 316 327 336 542 484 533 552 557 537 547 547 572 540 546 560 538 562 563 585 606 615 578 562 543 558 574 540 515 595 602 686 689 669 487 555 608 769 764 796 759 774 851 853 866 830 790 814 792 762 737 708 791 747 801 842 816 839 788 627 706 687 570 603 602 599 612 608 677 760 639 619 665 703 743 714 702 708 725 757 771 637 815 848 893 914 882 823 726 844 875 857 837 845 874 852 863 848 824 801 793 809 830 836 840 808 778 792 800 767 766 767 825 824 847 845 793 807 795 904 928 989 988 903 840 802 847 933 889 867 870 851 784 830 817 759 765 764 769 859 999 822 988 1022 738 727 691 712 966 752 830 784 788 800 814 856 1138 1005 1015 994 906 801 877 1071 856 947 1145 1457 1347 1211 1414 1129 1337 1359 1193 984 1032 1028 1028 1336 1028 886 872 968 1041 1025 849 878 864 806 991 964 860 778 747 769 728 726 696 731 755 716 933 1165 1072 1146 1234 1195 1203 1224 1118 879 942 946 828 870 857 879 893 959 1055 1208 1350 1243 1207 1186 1106 1021 1060 1068 976 1007 1017 956 1028 1037 1225 1281 1368 1361 1427 1435 1399 1404 1439 1384 1431 1347 1314 1135 1015 1150 1204 1098 1047 1068 1126 1103 1258 1181 1141 1109 1139 1004 987 987 942 973 963 976 979 961 951 929 916 898 807 791 833 812 828 764 764 765 825 795 786 770 766 766 766 766 778 780 774 770 775 776 841 880 817 804 775 771 771 793 778 814 843 822 807 808 890 986 1064 1051 1048 1091 1154 1098 1055 1066 1088 1048 1045 1075 1115 1111 1075 1059 1126 1074 1029 1034 1068 1146 1042 1095 1007 950 1098 1147 1072 1156 1262 1146 1108 1087 957 960 959 1048 1091 1178 996 1046 847 762 760 748 741 768 613 632 668 501 399 435 579 838 696 602 534 500 538 358 449 205 212 277 271 493 491 456 333 249 236 258 234 265 153 106 148 127 185 101 183 189 216 100 89 56 61 87 44 52 46 49 36 36 36 9 0 0 0 0 0 0 0 0 0 0 0 0 0 0 0 0 0 0 0 0 0 0 0 0 0 0 0 0 0 0 0 0 0 0 0 0 0 0 0 0 0 0 0 0 0 0 0 0 0 0 0 0 0 0 0 0 0 0 0 0 0 0 0 0 0 0 0 0 0 0 0 0 0 0 0 0 0 0 0 0 0 0 0 0 0 0 0 0 0 0 0 0 0 0 0 0 0 0 0 0 0 0 0 0 0 0 0 0 0 0 0 0 0 0 0 0 0 0 0 0 0 0 0 0 0 0 0 0 0 0 0 0 0 0
0 0 0 0 0 0 0 0 0 0 0 0 0 0 0 0 0 0 0 0 0 0 0 0 0 0 0 0 0 0 0 0 0 0 0 0 0 0 0 0 0 0 0 0 0 0 0 0 0 0 0 0 0 0 0 0 0 0 0 0 0 0 0 0 0 0 0 0 0 0 0 0 0 0 0 0 0 0 0 0 0 0 0 0 0 0 0 0 0 0 0 0 0 0 0 0 0 0 0 0 0 0 0 0 0 0 0 0 0 0 0 0 0 0 0 0 0 0 0 0 0 0 0 0 0 0 0 0 0 0 0 0 0 0 0 0 0 0 0 0 0 0 0 0 0 0 0 0 0 0 0 0 0 0 0 0 0 0 0 0 0 0 0 0 0 0 0 0 0 0 0 0 0 0 0 0 0 0 0 0 0 0 0 0 0 0 0 0 0 0 0 0 0 0 0 0 0 0 0 0 0 0 0 0 0 0 0 0 0 0 0 0 0 0 0 0 0 0 0 0 0 0 0 0 0 0 0 0 0 0 0 0 0 0 0 0 0 0 0 0 0 0 0 29 14 21 23 21 40 51 22 18 25 36 34 23 50 18 14 27 52 81 50 62 53 32 42 48 60 55 64 69 77 108 89 107 87 88 94 109 104 113 161 161 153 129 182 209 228 255 276 253 209 186 189 188 276 349 210 195 185 162 152 163 190 196 213 193 159 148 148 142 167 176 184 191 213 253 223 217 222 257 284 254 219 285 258 236 217 217 214 228 214 221 206 226 260 229 231 283 213 230 218 212 215 222 231 252 296 232 279 268 229 250 252 247 251 280 327 312 298 287 292 278 270 274 342 275 286 299 312 303 300 301 301 314 316 324 330 521 544 481 544 550 546 538 546 558 566 547 569 567 591 586 575 593 603 598 594 547 585 603 536 587 612 632 728 713 717 501 568 659 722 797 842 753 769 808 859 877 813 831 750 722 750 755 699 845 759 849 874 873 861 710 603 671 715 582 602 605 624 601 712 735 800 642 631 660 635 670 697 727 732 720 777 803 720 825 855 900 919 880 891 899 893 908 885 856 828 824 846 851 831 819 828 818 801 788 822 813 821 818 779 768 779 807 785 782 822 857 906 790 791 851 802 953 961 1027 1094 898 851 864 913 954 987 862 818 810 794 790 768 755 800 860 752 785 940 1205 987 728 692 834 849 731 737 765 774 813 805 816 989 1342 1016 1056 970 924 889 825 888 835 909 1135 1413 1406 1239 1426 1322 1333 1429 1368 1274 998 1149 1295 1355 970 891 924 895 893 1063 899 875 843 825 829 1018 764 740 739 739 733 703 731 728 772 799 724 864 1300 1378 1366 1197 1229 1246 938 845 911 931 831 844 824 935 1116 983 1075 1298 1244 1234 1214 1160 1199 1159 1091 1033 1148 1232 1266 993 1179 1018 1128 1363 1421 1469 1452 1436 1424 1412 1409 1383 1420 1379 1297 1149 1151 1087 1083 1055 1069 1084 1074 1154 1195 1196 1164 1111 1081 1075 1057 992 962 950 967 970 963 925 956 933 951 856 821 797 787 823 788 765 764 766 854 811 793 787 768 767 765 766 765 788 795 771 788 777 788 957 868 837 804 773 774 820 823 797 886 836 830 841 1009 998 1153 1051 1032 1048 1084 1047 1079 1076 1109 1026 1053 1056 1121 1174 1115 1192 1099 1003 1001 1073 1214 1171 1096 1121 969 939 1076 1253 1152 1192 1203 1147 1133 1126 1014 969 881 986 1053 1025 1088 884 800 927 877 767 774 806 603 795 538 447 434 584 786 787 804 735 548 543 349 403 325 275 268 377 379 476 419 374 336 278 253 237 241 200 183 185 140 115 148 79 81 188 107 102 55 74 60 86 70 46 42 47 30 18 16 7 0 0 0 0 0 0 0 0 0 0 0 0 0 0 0 0 0 0 0 0 0 0 0 0 0 0 0 0 0 0 0 0 0 0 0 0 0 0 0 0 0 0 0 0 0 0 0 0 0 0 0 0 0 0 0 0 0 0 0 0 0 0 0 0 0 0 0 0 0 0 0 0 0 0 0 0 0 0 0 0 0 0 0 0 0 0 0 0 0 0 0 0 0 0 0 0 0 0 0 0 0 0 0 0 0 0 0 0 0 0 0 0 0 0 0 0 0 0 0 0 0 0 0 0 0 0 0 0 0 0 0 0 0 0
0 0 0 0 0 0 0 0 0 0 0 0 0 0 0 0 0 0 0 0 0 0 0 0 0 0 0 0 0 0 0 0 0 0 0 0 0 0 0 0 0 0 0 0 0 0 0 0 0 0 0 0 0 0 0 0 0 0 0 0 0 0 0 0 0 0 0 0 0 0 0 0 0 0 0 0 0 0 0 0 0 0 0 0 0 0 0 0 0 0 0 0 0 0 0 0 0 0 0 0 0 0 0 0 0 0 0 0 0 0 0 0 0 0 0 0 0 0 0 0 0 0 0 0 0 0 0 0 0 0 0 0 0 0 0 0 0 0 0 0 0 0 0 0 0 0 0 0 0 0 0 0 0 0 0 0 0 0 0 0 0 0 0 0 0 0 0 0 0 0 0 0 0 0 0 0 0 0 0 0 0 0 0 0 0 0 0 0 0 0 0 0 0 0 0 0 0 0 0 0 0 0 0 0 0 0 0 0 0 0 0 0 0 0 0 0 0 0 0 0 0 0 0 0 0 0 0 0 0 0 0 0 0 0 0 0 0 0 0 0 0 0 13 37 34 30 30 11 36 39 12 17 26 15 12 15 23 12 22 28 71 90 43 41 37 36 67 77 57 47 49 58 73 90 72 122 80 113 106 119 108 110 118 127 126 132 218 191 157 205 238 248 243 251 202 207 355 346 206 193 177 169 174 188 188 207 230 185 170 154 141 153 156 171 186 196 195 245 253 229 214 245 250 307 230 264 264 229 230 250 226 218 214 211 213 219 214 239 221 267 242 223 218 238 224 229 240 218 246 229 231 261 226 241 249 241 248 252 291 365 297 282 298 291 268 272 292 276 313 291 305 295 314 311 307 307 323 325 396 466 542 535 557 556 553 552 548 555 584 585 563 582 583 623 587 588 592 608 565 576 565 596 570 610 634 712 754 744 738 518 590 772 727 738 831 757 860 886 823 814 815 711 714 714 760 824 726 860 823 850 898 848 816 630 617 699 702 616 635 593 621 665 814 707 825 726 645 637 668 725 716 758 733 716 755 735 813 832 910 878 869 863 874 916 875 890 856 860 865 813 817 859 815 813 802 790 790 795 786 788 784 804 804 767 792 790 807 776 803 906 930 832 800 948 908 915 1038 1035 916 884 853 851 883 925 966 875 862 819 778 772 790 757 838 982 770 777 1043 1209 921 909 723 892 760 778 754 759 779 806 832 807 937 1315 1044 1102 1064 1017 881 937 862 852 891 1119 1406 1413 1310 1413 1379 1403 1357 1437 1354 1133 1105 1229 1078 933 939 885 867 885 850 883 839 860 806 763 798 767 779 782 759 724 767 717 769 804 746 710 699 827 932 1094 1125 1221 1053 849 860 829 858 792 825 851 940 1103 1190 1015 1203 1294 1330 1236 1256 1244 1158 1114 1063 1158 1303 1161 1039 1372 1074 1069 1416 1264 1438 1435 1469 1422 1414 1527 1467 1403 1380 1201 1089 1097 1078 1055 1085 1158 1074 1082 1097 1225 1144 1102 1139 1145 1120 1011 988 981 953 985 982 927 933 948 919 933 883 810 780 773 773 784 767 765 766 841 820 793 767 769 771 767 769 768 773 776 837 779 780 781 854 838 802 807 787 777 831 1027 945 834 847 844 810 889 1076 1071 1117 1062 1059 1065 1065 1108 1112 1104 1069 1108 1076 1097 1171 1207 1150 1148 1057 1037 1210 1194 1103 1131 1121 936 1008 1088 1268 1162 1153 1143 1148 1135 1125 1156 1016 907 938 1004 1002 1060 953 951 1001 816 754 769 736 676 703 529 449 492 561 905 838 744 594 314 284 223 311 276 362 362 512 467 400 387 300 280 271 320 237 376 297 314 297 220 159 97 118 116 110 121 84 28 50 34 53 57 15 24 54 18 10 6 7 0 0 0 0 0 0 0 0 0 0 0 0 0 0 0 0 0 0 0 0 0 0 0 0 0 0 0 0 0 0 0 0 0 0 0 0 0 0 0 0 0 0 0 0 0 0 0 0 0 0 0 0 0 0 0 0 0 0 0 0 0 0 0 0 0 0 0 0 0 0 0 0 0 0 0 0 0 0 0 0 0 0 0 0 0 0 0 0 0 0 0 0 0 0 0 0 0 0 0 0 0 0 0 0 0 0 0 0 0 0 0 0 0 0 0 0 0 0 0 0 0 0 0 0 0 0 0 0 0 0 0 0 0 0
0 0 0 0 0 0 0 0 0 0 0 0 0 0 0 0 0 0 0 0 0 0 0 0 0 0 0 0 0 0 0 0 0 0 0 0 0 0 0 0 0 0 0 0 0 0 0 0 0 0 0 0 0 0 0 0 0 0 0 0 0 0 0 0 0 0 0 0 0 0 0 0 0 0 0 0 0 0 0 0 0 0 0 0 0 0 0 0 0 0 0 0 0 0 0 0 0 0 0 0 0 0 0 0 0 0 0 0 0 0 0 0 0 0 0 0 0 0 0 0 0 0 0 0 0 0 0 0 0 0 0 0 0 0 0 0 0 0 0 0 0 0 0 0 0 0 0 0 0 0 0 0 0 0 0 0 0 0 0 0 0 0 0 0 0 0 0 0 0 0 0 0 0 0 0 0 0 0 0 0 0 0 0 0 0 0 0 0 0 0 0 0 0 0 0 0 0 0 0 0 0 0 0 0 0 0 0 0 0 0 0 0 0 0 0 0 0 0 0 0 0 0 0 0 0 0 0 0 0 0 0 0 0 0 0 0 0 0 0 0 0 0 10 9 9 9 9 9 11 15 17 16 15 18 17 17 14 17 16 30 63 89 32 26 32 40 47 57 47 59 45 64 94 70 89 69 69 116 139 154 163 137 167 137 178 176 130 154 218 264 277 262 251 230 281 545 624 399 197 192 180 169 163 187 209 215 198 165 162 167 147 144 156 193 207 175 182 205 254 236 224 224 247 245 250 258 253 237 246 236 240 222 221 217 211 254 224 234 240 229 228 259 229 253 239 239 234 251 262 251 240 223 224 232 248 255 259 263 264 274 284 264 270 275 288 271 302 292 292 280 310 338 311 331 325 309 328 391 407 453 512 550 573 555 559 554 553 571 589 598 554 584 610 632 613 609 611 631 616 601 612 616 580 600 704 758 774 773 662 536 633 864 819 787 823 822 899 883 797 822 760 768 746 768 742 785 739 864 853 869 714 661 658 686 634 734 666 641 620 594 646 662 789 805 833 673 657 646 711 744 712 745 734 736 773 851 833 913 894 870 898 870 900 914 906 893 853 848 857 838 806 835 838 844 838 799 793 797 827 820 817 782 833 804 805 827 802 798 813 813 857 856 830 814 892 965 907 975 899 860 876 817 898 927 917 848 830 831 788 821 854 846 771 940 883 953 1222 1090 954 1081 867 868 812 779 743 798 780 788 784 824 857 1050 992 1040 1209 1074 892 868 1007 895 867 1032 1304 1404 1431 1449 1382 1450 1455 1396 1332 1273 1323 1227 1282 937 931 920 858 902 943 889 890 834 876 887 832 932 866 902 776 714 778 751 782 798 770 717 752 739 719 739 738 803 782 764 801 839 844 789 801 844 882 1045 1180 1258 1257 1266 1256 1126 1214 1179 1201 1130 1127 1134 1081 1105 1145 1251 1167 1040 1181 1198 1317 1383 1361 1413 1430 1450 1547 1439 1305 1356 1107 1123 1083 1094 1196 1080 1114 1073 1099 1123 1102 1111 1165 1103 1118 1029 972 1067 977 1009 934 903 907 908 899 901 917 855 786 771 769 769 768 767 775 806 835 791 774 773 772 771 771 771 773 799 854 847 792 779 810 866 875 804 873 778 783 822 950 1005 905 929 845 831 959 1017 1055 1094 1115 1053 1105 1132 1168 1155 1092 1120 1172 1115 1200 1272 1195 1139 1027 1213 1187 1187 1147 1087 1032 979 1020 1220 1089 1224 1172 1134 1124 1100 1082 1133 1014 987 923 989 942 1089 972 1083 1201 992 904 902 834 685 547 465 595 474 636 688 767 453 313 299 275 268 215 170 362 459 275 365 402 397 334 318 441 352 361 443 411 223 339 198 128 97 69 89 65 38 20 68 34 46 52 85 41 7 29 23 10 6 0 0 0 0 0 0 0 0 0 0 0 0 0 0 0 0 0 0 0 0 0 0 0 0 0 0 0 0 0 0 0 0 0 0 0 0 0 0 0 0 0 0 0 0 0 0 0 0 0 0 0 0 0 0 0 0 0 0 0 0 0 0 0 0 0 0 0 0 0 0 0 0 0 0 0 0 0 0 0 0 0 0 0 0 0 0 0 0 0 0 0 0 0 0 0 0 0 0 0 0 0 0 0 0 0 0 0 0 0 0 0 0 0 0 0 0 0 0 0 0 0 0 0 0 0 0 0 0 0 0 0 0 0 0 0
0 0 0 0 0 0 0 0 0 0 0 0 0 0 0 0 0 0 0 0 0 0 0 0 0 0 0 0 0 0 0 0 0 0 0 0 0 0 0 0 0 0 0 0 0 0 0 0 0 0 0 0 0 0 0 0 0 0 0 0 0 0 0 0 0 0 0 0 0 0 0 0 0 0 0 0 0 0 0 0 0 0 0 0 0 0 0 0 0 0 0 0 0 0 0 0 0 0 0 0 0 0 0 0 0 0 0 0 0 0 0 0 0 0 0 0 0 0 0 0 0 0 0 0 0 0 0 0 0 0 0 0 0 0 0 0 0 0 0 0 0 0 0 0 0 0 0 0 0 0 0 0 0 0 0 0 0 0 0 0 0 0 0 0 0 0 0 0 0 0 0 0 0 0 0 0 0 0 0 0 0 0 0 0 0 0 0 0 0 0 0 0 0 0 0 0 0 0 0 0 0 0 0 0 0 0 0 0 0 0 0 0 0 0 0 0 0 0 0 0 0 0 0 0 0 0 0 0 0 0 0 0 0 0 0 0 0 0 0 0 0 32 19 7 14 11 12 12 11 12 14 10 10 20 26 46 17 14 21 28 52 80 20 32 27 31 54 48 65 70 62 48 74 97 89 108 97 115 121 122 163 166 162 156 203 213 179 185 259 295 433 337 303 238 243 305 560 557 222 197 188 174 173 193 242 179 167 164 174 203 160 156 145 169 185 160 165 193 215 249 242 240 233 238 279 258 259 248 245 245 235 227 232 215 221 259 231 244 243 213 228 233 275 267 241 232 232 248 246 273 258 242 237 231 238 249 258 274 278 287 277 261 276 269 293 294 295 302 319 309 320 341 347 348 345 343 403 375 436 440 542 573 576 573 564 566 567 569 583 590 588 608 604 648 627 621 627 615 642 623 607 634 612 596 702 739 784 772 628 560 727 887 871 850 867 861 910 814 830 841 879 773 788 770 840 814 745 852 871 887 818 801 768 687 630 681 671 659 640 611 607 695 803 836 840 692 776 713 736 829 801 750 750 743 853 889 892 925 890 886 890 847 892 931 895 869 860 838 836 819 803 829 822 832 791 807 826 821 788 782 803 838 854 829 823 789 779 776 818 811 885 951 855 893 852 929 987 995 926 900 910 846 876 905 914 843 901 857 818 812 915 925 864 860 1006 1054 1279 1101 988 836 798 781 810 737 748 790 793 778 800 857 836 966 933 1001 1147 1050 918 1005 962 1016 897 926 1210 1364 1339 1372 1250 1417 1466 1429 1301 1277 1285 1260 1166 937 932 911 899 894 855 902 950 956 853 915 937 897 1009 991 881 774 730 771 780 798 832 800 788 754 761 772 836 754 821 858 826 805 832 778 803 889 866 987 1080 1051 1070 1264 1250 1138 1121 1178 1127 1151 1095 1101 1128 1087 1133 1165 1272 1140 1100 1321 1357 1331 1447 1352 1362 1421 1451 1411 1306 1276 1220 1118 1154 1100 1152 1161 1304 1279 1135 1081 1171 1145 1098 1124 1111 1126 987 1017 987 1107 966 900 878 882 898 902 921 830 780 834 816 770 767 775 840 827 785 775 803 775 773 772 774 776 779 796 882 1058 865 788 796 861 832 873 842 780 784 796 807 907 983 1028 897 871 883 1035 1075 1086 1096 1104 1076 1089 1120 1156 1173 1144 1228 1135 1171 1263 1156 1135 1160 1245 1237 1211 1131 1000 984 1058 1106 1114 1042 1260 1151 1156 1173 1104 1065 1085 1065 973 1003 1027 947 1022 1036 1036 1108 969 889 911 935 605 466 495 670 596 417 424 512 438 303 207 300 248 220 271 216 436 322 195 374 436 438 403 438 365 413 260 185 156 148 108 157 145 99 69 56 39 56 33 15 19 62 61 11 13 8 34 4 9 0 0 0 0 0 0 0 0 0 0 0 0 0 0 0 0 0 0 0 0 0 0 0 0 0 0 0 0 0 0 0 0 0 0 0 0 0 0 0 0 0 0 0 0 0 0 0 0 0 0 0 0 0 0 0 0 0 0 0 0 0 0 0 0 0 0 0 0 0 0 0 0 0 0 0 0 0 0 0 0 0 0 0 0 0 0 0 0 0 0 0 0 0 0 0 0 0 0 0 0 0 0 0 0 0 0 0 0 0 0 0 0 0 0 0 0 0 0 0 0 0 0 0 0 0 0 0 0 0 0 0 0 0 0 0
0 0 0 0 0 0 0 0 0 0 0 0 0 0 0 0 0 0 0 0 0 0 0 0 0 0 0 0 0 0 0 0 0 0 0 0 0 0 0 0 0 0 0 0 0 0 0 0 0 0 0 0 0 0 0 0 0 0 0 0 0 0 0 0 0 0 0 0 0 0 0 0 0 0 0 0 0 0 0 0 0 0 0 0 0 0 0 0 0 0 0 0 0 0 0 0 0 0 0 0 0 0 0 0 0 0 0 0 0 0 0 0 0 0 0 0 0 0 0 0 0 0 0 0 0 0 0 0 0 0 0 0 0 0 0 0 0 0 0 0 0 0 0 0 0 0 0 0 0 0 0 0 0 0 0 0 0 0 0 0 0 0 0 0 0 0 0 0 0 0 0 0 0 0 0 0 0 0 0 0 0 0 0 0 0 0 0 0 0 0 0 0 0 0 0 0 0 0 0 0 0 0 0 0 0 0 0 0 0 0 0 0 0 0 0 0 0 0 0 0 0 0 0 0 0 0 0 0 0 0 0 0 0 0 0 0 0 0 0 0 0 0 9 0 7 7 9 8 7 7 12 10 33 46 26 53 21 23 24 52 75 44 31 29 31 48 50 35 50 63 73 66 58 65 91 113 97 94 113 113 161 130 153 154 207 211 192 203 260 336 337 298 268 278 252 376 482 418 235 201 227 183 180 194 219 188 183 170 185 205 167 173 146 149 166 177 175 179 180 271 250 247 239 241 244 274 243 237 248 250 233 236 221 215 239 267 242 244 250 220 250 264 255 271 236 227 219 232 244 257 272 256 258 243 237 249 257 300 283 278 277 277 288 292 307 299 310 300 299 316 298 337 330 329 356 360 429 350 396 451 550 540 559 570 577 571 569 576 577 596 581 603 606 627 616 609 622 633 632 655 615 652 595 739 716 799 783 806 717 590 830 863 917 910 921 893 845 822 860 923 826 785 822 795 819 856 820 824 919 786 819 770 728 768 645 661 669 663 611 608 595 600 644 801 747 743 779 838 753 850 818 815 751 810 840 883 872 915 898 858 853 845 887 887 853 867 852 818 839 810 797 798 842 812 818 793 804 822 815 803 825 851 836 840 800 799 801 790 780 818 831 887 858 933 873 1036 1085 969 910 963 893 853 887 928 892 917 944 895 863 870 867 919 931 910 1263 1053 1162 1104 1064 826 789 781 799 746 768 762 824 799 784 795 810 985 933 969 1115 1145 1031 907 971 1067 997 885 1083 1292 1353 1373 1213 1416 1441 1446 1392 1350 1085 1063 1016 1133 914 930 887 868 967 959 929 922 924 903 912 989 992 936 789 742 813 839 835 867 842 845 887 832 866 926 730 750 752 929 811 809 794 790 786 807 826 910 1005 1031 1084 1248 1322 1181 1122 1094 1095 1185 1115 1141 1076 1065 1171 1115 1157 1167 1111 1233 1261 1308 1396 1399 1343 1405 1421 1433 1324 1294 1317 1326 1271 1138 1149 1295 1359 1211 1095 1101 1128 1175 1144 1112 1123 1100 1021 1038 1000 1005 930 947 893 867 907 894 812 868 836 826 789 769 767 772 832 874 813 778 815 776 777 787 783 782 789 810 876 1052 909 791 806 801 874 816 905 782 784 788 789 819 853 1063 926 862 865 1021 1116 1083 1076 1096 1114 1133 1121 1161 1200 1293 1298 1228 1157 1206 1132 1139 1190 1173 1183 1214 1146 993 1036 1140 1055 1015 1004 1003 1145 1321 1102 1111 1167 1067 1078 1022 1062 1041 1093 962 1139 923 990 902 826 832 779 565 552 548 681 530 323 250 282 470 306 193 179 175 158 186 290 445 368 215 282 220 265 315 451 425 354 303 276 378 158 168 186 149 80 62 129 86 120 106 60 14 56 81 13 8 9 9 10 12 0 0 0 0 0 0 0 0 0 0 0 0 0 0 0 0 0 0 0 0 0 0 0 0 0 0 0 0 0 0 0 0 0 0 0 0 0 0 0 0 0 0 0 0 0 0 0 0 0 0 0 0 0 0 0 0 0 0 0 0 0 0 0 0 0 0 0 0 0 0 0 0 0 0 0 0 0 0 0 0 0 0 0 0 0 0 0 0 0 0 0 0 0 0 0 0 0 0 0 0 0 0 0 0 0 0 0 0 0 0 0 0 0 0 0 0 0 0 0 0 0 0 0 0 0 0 0 0 0 0 0 0 0 0 0
0 0 0 0 0 0 0 0 0 0 0 0 0 0 0 0 0 0 0 0 0 0 0 0 0 0 0 0 0 0 0 0 0 0 0 0 0 0 0 0 0 0 0 0 0 0 0 0 0 0 0 0 0 0 0 0 0 0 0 0 0 0 0 0 0 0 0 0 0 0 0 0 0 0 0 0 0 0 0 0 0 0 0 0 0 0 0 0 0 0 0 0 0 0 0 0 0 0 0 0 0 0 0 0 0 0 0 0 0 0 0 0 0 0 0 0 0 0 0 0 0 0 0 0 0 0 0 0 0 0 0 0 0 0 0 0 0 0 0 0 0 0 0 0 0 0 0 0 0 0 0 0 0 0 0 0 0 0 0 0 0 0 0 0 0 0 0 0 0 0 0 0 0 0 0 0 0 0 0 0 0 0 0 0 0 0 0 0 0 0 0 0 0 0 0 0 0 0 0 0 0 0 0 0 0 0 0 0 0 0 0 0 0 0 0 0 0 0 0 0 0 0 0 0 0 0 0 0 0 0 0 0 0 0 0 0 0 0 0 0 0 8 7 25 24 18 18 6 7 6 9 17 22 30 51 23 28 51 53 23 26 30 36 46 50 52 55 50 50 66 87 98 85 85 98 88 81 101 107 94 139 148 167 153 204 222 192 199 263 375 324 272 318 291 269 274 403 343 266 385 266 222 206 195 222 178 174 186 167 206 163 157 149 163 154 160 167 183 241 230 257 236 237 274 268 260 280 253 245 253 245 243 238 217 256 257 228 237 304 241 223 261 238 221 230 234 233 239 237 234 239 266 270 264 252 252 254 264 289 272 264 291 282 289 291 295 316 327 337 320 326 313 353 344 391 420 473 456 408 460 490 515 538 554 572 566 576 568 581 570 607 620 626 599 601 626 613 608 616 651 653 657 642 720 805 783 805 819 784 665 857 907 935 938 927 891 851 923 953 934 911 930 854 828 837 838 839 875 844 757 702 702 779 656 638 667 635 645 640 650 665 695 680 682 694 731 751 758 813 796 831 829 745 833 831 851 863 910 868 873 894 882 862 889 843 849 809 805 827 806 819 798 826 828 825 806 813 816 833 786 821 826 851 845 853 786 774 799 815 802 830 852 917 839 914 975 1049 975 939 972 933 914 841 896 956 938 986 975 895 904 843 939 993 1223 1149 1015 988 987 858 832 792 760 783 739 783 779 809 785 797 821 872 880 983 957 1116 1193 937 869 942 1129 1172 926 909 1138 1241 1246 1227 1366 1308 1423 1461 1361 1038 1028 944 987 915 912 940 900 926 922 923 985 1005 921 888 989 1047 1088 820 851 956 852 800 879 851 925 1130 977 1150 850 790 812 800 770 760 831 789 811 777 832 881 900 1092 1087 1094 1220 1289 1219 1171 1097 1113 1089 1123 1117 1129 1141 1091 1225 1281 1228 1126 1093 1139 1336 1309 1359 1341 1378 1361 1380 1420 1409 1447 1379 1285 1245 1287 1407 1175 1084 1102 1222 1153 1119 1120 1098 1124 1081 1054 1030 1090 936 934 929 895 866 881 882 932 874 833 792 785 769 790 770 824 897 873 788 782 783 781 779 804 790 798 851 866 1002 950 867 820 868 852 890 894 801 787 789 795 818 819 833 869 973 933 1007 996 1093 1107 1172 1195 1171 1215 1193 1178 1276 1223 1226 1172 1225 1065 1128 1137 1104 1123 1214 1066 1023 1119 1082 1052 991 949 1144 1330 1153 1011 1220 963 1068 1013 1121 1051 1044 957 909 1046 963 884 889 822 828 809 609 792 641 510 540 468 325 231 230 221 161 200 300 201 338 400 567 450 202 314 244 198 300 472 401 467 361 285 429 217 230 221 104 134 163 100 75 64 87 42 37 13 18 14 44 17 13 13 0 0 0 0 0 0 0 0 0 0 0 0 0 0 0 0 0 0 0 0 0 0 0 0 0 0 0 0 0 0 0 0 0 0 0 0 0 0 0 0 0 0 0 0 0 0 0 0 0 0 0 0 0 0 0 0 0 0 0 0 0 0 0 0 0 0 0 0 0 0 0 0 0 0 0 0 0 0 0 0 0 0 0 0 0 0 0 0 0 0 0 0 0 0 0 0 0 0 0 0 0 0 0 0 0 0 0 0 0 0 0 0 0 0 0 0 0 0 0 0 0 0 0 0 0 0 0 0 0 0 0 0 0 0 0 0
0 0 0 0 0 0 0 0 0 0 0 0 0 0 0 0 0 0 0 0 0 0 0 0 0 0 0 0 0 0 0 0 0 0 0 0 0 0 0 0 0 0 0 0 0 0 0 0 0 0 0 0 0 0 0 0 0 0 0 0 0 0 0 0 0 0 0 0 0 0 0 0 0 0 0 0 0 0 0 0 0 0 0 0 0 0 0 0 0 0 0 0 0 0 0 0 0 0 0 0 0 0 0 0 0 0 0 0 0 0 0 0 0 0 0 0 0 0 0 0 0 0 0 0 0 0 0 0 0 0 0 0 0 0 0 0 0 0 0 0 0 0 0 0 0 0 0 0 0 0 0 0 0 0 0 0 0 0 0 0 0 0 0 0 0 0 0 0 0 0 0 0 0 0 0 0 0 0 0 0 0 0 0 0 0 0 0 0 0 0 0 0 0 0 0 0 0 0 0 0 0 0 0 0 0 0 0 0 0 0 0 0 0 0 0 0 0 0 0 0 0 0 0 0 0 0 0 0 0 0 0 0 0 0 0 0 0 0 0 0 0 11 5 22 27 23 6 7 6 8 15 18 62 33 53 37 60 64 54 21 38 38 46 58 75 61 61 62 65 73 87 85 106 96 114 94 78 74 107 135 139 156 154 146 181 218 213 208 264 232 403 305 295 294 297 265 276 301 321 328 269 221 231 206 197 180 168 210 182 174 167 162 159 151 158 179 176 185 211 222 261 234 258 229 217 242 264 260 262 259 254 253 231 242 244 240 271 241 282 234 226 256 270 220 225 267 249 237 240 257 264 252 258 259 270 257 260 271 282 290 271 262 273 272 285 290 295 333 327 325 335 363 350 362 390 422 466 480 418 523 471 464 524 542 543 550 566 560 575 586 583 628 630 612 629 611 616 598 623 616 642 669 666 780 767 797 803 815 716 761 878 993 946 962 883 884 915 948 1008 964 904 849 890 923 836 862 825 800 881 848 720 669 708 673 639 685 636 659 654 673 678 637 621 722 696 729 751 728 748 755 786 808 703 887 934 869 890 895 874 871 890 863 885 877 846 843 834 841 827 828 833 815 817 848 804 821 833 830 816 815 803 858 868 847 797 814 776 823 834 810 811 829 870 876 880 871 985 1056 945 1037 1055 923 870 901 973 955 1079 1147 1085 957 812 997 1124 1315 1089 1049 989 925 927 874 798 735 764 786 796 771 801 809 851 824 846 976 979 917 1045 1034 874 877 908 1020 1185 1094 919 1024 1168 1242 1152 1142 1191 1496 1399 1419 1108 966 925 912 977 933 964 948 906 961 970 981 898 885 925 1060 1050 1148 935 841 905 997 934 973 859 877 1007 881 940 859 791 770 843 773 840 781 817 797 792 914 1062 1064 1068 1066 1133 1178 1293 1289 1150 1107 1109 1105 1077 1072 1066 1071 1089 1330 1294 1242 1248 1112 1093 1260 1338 1358 1362 1409 1397 1319 1383 1366 1347 1308 1281 1242 1229 1223 1131 1095 1165 1229 1139 1138 1120 1102 1135 1115 1040 992 945 983 919 907 878 885 870 866 947 917 797 777 808 787 780 770 820 911 853 797 790 785 781 809 783 815 801 821 872 911 1027 888 804 832 835 939 880 853 792 792 794 824 820 867 882 874 937 921 940 1131 1097 1218 1288 1221 1157 1284 1275 1192 1242 1200 1162 1162 1082 1103 1187 1150 1118 1164 1165 1051 1070 1117 983 938 990 1205 1320 1015 990 1077 925 931 1013 1035 1017 850 845 1003 954 1049 988 911 801 768 869 812 867 759 476 558 459 273 257 198 166 233 210 251 230 230 468 428 380 160 189 253 176 248 408 297 423 233 179 226 129 79 195 162 185 146 85 64 32 34 61 47 42 18 11 18 19 28 6 0 0 0 0 0 0 0 0 0 0 0 0 0 0 0 0 0 0 0 0 0 0 0 0 0 0 0 0 0 0 0 0 0 0 0 0 0 0 0 0 0 0 0 0 0 0 0 0 0 0 0 0 0 0 0 0 0 0 0 0 0 0 0 0 0 0 0 0 0 0 0 0 0 0 0 0 0 0 0 0 0 0 0 0 0 0 0 0 0 0 0 0 0 0 0 0 0 0 0 0 0 0 0 0 0 0 0 0 0 0 0 0 0 0 0 0 0 0 0 0 0 0 0 0 0 0 0 0 0 0 0 0 0 0 0 0
0 0 0 0 0 0 0 0 0 0 0 0 0 0 0 0 0 0 0 0 0 0 0 0 0 0 0 0 0 0 0 0 0 0 0 0 0 0 0 0 0 0 0 0 0 0 0 0 0 0 0 0 0 0 0 0 0 0 0 0 0 0 0 0 0 0 0 0 0 0 0 0 0 0 0 0 0 0 0 0 0 0 0 0 0 0 0 0 0 0 0 0 0 0 0 0 0 0 0 0 0 0 0 0 0 0 0 0 0 0 0 0 0 0 0 0 0 0 0 0 0 0 0 0 0 0 0 0 0 0 0 0 0 0 0 0 0 0 0 0 0 0 0 0 0 0 0 0 0 0 0 0 0 0 0 0 0 0 0 0 0 0 0 0 0 0 0 0 0 0 0 0 0 0 0 0 0 0 0 0 0 0 0 0 0 0 0 0 0 0 0 0 0 0 0 0 0 0 0 0 0 0 0 0 0 0 0 0 0 0 0 0 0 0 0 0 0 0 0 0 0 0 0 0 0 0 0 0 0 0 0 0 0 0 0 0 0 0 0 0 0 10 8 22 21 19 8 8 33 24 36 15 21 35 48 65 82 71 33 21 30 25 63 72 69 57 52 56 63 77 74 85 109 120 141 116 89 102 91 113 132 133 167 143 182 196 227 244 298 255 243 293 277 286 268 279 291 295 312 294 255 240 212 191 199 202 207 194 183 188 165 156 161 176 158 195 190 177 204 222 253 199 221 228 202 221 243 269 272 269 259 246 244 258 246 256 270 249 250 236 227 252 227 235 231 246 261 245 241 256 260 266 257 276 275 284 278 311 267 295 299 266 260 283 297 291 324 325 327 322 327 346 393 377 474 470 499 494 446 507 543 493 501 507 532 546 573 581 559 568 583 617 618 586 604 582 591 616 623 649 655 651 732 783 797 789 799 814 742 865 989 992 972 935 901 934 978 995 1002 954 953 944 931 907 843 782 735 747 812 756 706 667 653 677 642 685 641 651 644 659 680 637 658 656 720 770 915 890 732 742 799 743 700 804 942 896 908 905 884 874 862 874 881 904 881 870 850 802 815 846 804 805 839 831 812 844 849 817 793 827 811 840 838 843 844 802 778 777 808 871 846 810 878 974 971 866 1164 1106 986 1067 974 912 855 846 939 904 991 1100 1126 1016 941 911 1287 1400 1180 1080 1049 1054 811 820 827 746 794 798 773 829 814 842 862 831 837 858 915 920 863 884 876 857 1022 942 1136 1284 1072 928 1083 1265 1030 1149 1188 1341 1329 1385 1285 1274 1095 923 915 1014 965 905 940 997 1051 1027 944 886 924 954 1174 1179 1133 879 831 957 971 992 901 884 890 872 836 797 800 849 797 791 910 830 844 906 825 988 1218 1191 971 1001 1070 1212 1357 1267 1159 1148 1137 1075 1086 1080 1106 1097 1266 1154 1209 1305 1291 1187 1166 1189 1302 1286 1307 1291 1336 1314 1325 1420 1459 1410 1236 1246 1295 1280 1364 1180 1259 1174 1154 1095 1097 1139 1109 1065 1048 936 945 996 938 902 888 893 923 878 928 828 902 799 792 829 799 772 773 922 855 842 793 789 792 783 785 823 807 868 906 929 1104 1006 825 821 871 950 881 898 795 811 799 812 813 823 850 840 878 884 949 1077 1177 1193 1303 1234 1266 1254 1269 1140 1121 1171 1177 1170 1099 1035 1118 1070 1015 1070 1150 1115 1052 1106 1116 909 948 1134 1290 966 884 984 889 1012 959 960 813 796 704 933 927 980 925 894 802 768 836 823 949 781 630 666 464 379 332 273 200 363 389 170 171 113 277 275 247 128 202 99 161 232 270 185 190 178 132 153 130 57 114 113 135 101 76 117 40 57 103 78 45 21 28 26 34 9 0 0 0 0 0 0 0 0 0 0 0 0 0 0 0 0 0 0 0 0 0 0 0 0 0 0 0 0 0 0 0 0 0 0 0 0 0 0 0 0 0 0 0 0 0 0 0 0 0 0 0 0 0 0 0 0 0 0 0 0 0 0 0 0 0 0 0 0 0 0 0 0 0 0 0 0 0 0 0 0 0 0 0 0 0 0 0 0 0 0 0 0 0 0 0 0 0 0 0 0 0 0 0 0 0 0 0 0 0 0 0 0 0 0 0 0 0 0 0 0 0 0 0 0 0 0 0 0 0 0 0 0 0 0 0 0 0
0 0 0 0 0 0 0 0 0 0 0 0 0 0 0 0 0 0 0 0 0 0 0 0 0 0 0 0 0 0 0 0 0 0 0 0 0 0 0 0 0 0 0 0 0 0 0 0 0 0 0 0 0 0 0 0 0 0 0 0 0 0 0 0 0 0 0 0 0 0 0 0 0 0 0 0 0 0 0 0 0 0 0 0 0 0 0 0 0 0 0 0 0 0 0 0 0 0 0 0 0 0 0 0 0 0 0 0 0 0 0 0 0 0 0 0 0 0 0 0 0 0 0 0 0 0 0 0 0 0 0 0 0 0 0 0 0 0 0 0 0 0 0 0 0 0 0 0 0 0 0 0 0 0 0 0 0 0 0 0 0 0 0 0 0 0 0 0 0 0 0 0 0 0 0 0 0 0 0 0 0 0 0 0 0 0 0 0 0 0 0 0 0 0 0 0 0 0 0 0 0 0 0 0 0 0 0 0 0 0 0 0 0 0 0 0 0 0 0 0 0 0 0 0 0 0 0 0 0 0 0 0 0 0 0 0 0 0 0 0 0 9 10 19 18 22 8 19 33 59 46 17 19 59 60 55 50 34 33 31 43 26 57 65 44 52 84 66 72 67 77 103 98 109 123 120 96 94 125 111 141 116 123 139 151 191 170 225 283 365 274 272 339 302 326 334 363 320 497 299 245 224 216 194 231 193 196 213 188 202 195 171 167 161 167 187 175 170 189 203 226 186 199 227 210 235 217 239 262 265 263 264 244 260 277 280 262 251 259 256 244 266 255 259 249 248 247 248 239 269 265 271 264 275 280 261 282 298 254 289 277 265 265 278 312 323 309 321 317 350 422 380 411 472 511 489 506 519 498 535 576 548 539 506 545 563 554 549 556 568 582 614 572 573 603 620 595 602 614 625 629 633 667 791 803 830 810 811 809 916 1006 1000 970 935 947 960 1024 1010 993 949 952 954 930 905 794 731 706 707 677 669 668 686 683 649 672 654 666 662 652 663 704 661 671 664 643 737 871 704 741 754 744 725 687 755 954 931 941 904 900 869 894 949 933 854 851 839 828 803 843 832 838 804 835 842 843 807 827 796 817 834 877 819 830 798 807 790 795 802 786 822 849 842 850 919 987 1010 990 1223 1153 1042 928 879 917 898 853 915 1021 1119 1151 1128 1027 867 1172 1302 1143 1020 843 855 956 783 791 767 766 743 756 824 855 838 851 781 799 838 882 877 875 864 841 916 1023 1034 1038 997 1189 934 933 1187 1016 1051 1076 1246 1388 1388 1304 1217 1136 954 963 999 990 917 998 1090 961 959 921 941 955 1009 1037 1244 1165 1029 935 1013 996 1062 1025 1025 1068 1124 969 805 806 839 837 813 886 832 753 843 950 995 1052 1059 951 999 1090 1135 1256 1445 1247 1169 1311 1123 1114 1157 1090 1072 1268 1263 1329 1477 1416 1359 1332 1231 1216 1305 1280 1287 1231 1338 1412 1315 1279 1232 1193 1217 1284 1210 1317 1274 1191 1212 1126 1101 1140 1102 1087 1005 1027 961 943 995 942 906 904 890 916 919 913 876 920 831 845 778 831 775 775 847 875 856 794 794 826 793 838 800 826 823 832 943 1014 987 939 858 899 922 889 870 827 812 806 838 846 813 872 885 870 875 901 945 1058 1174 1316 1300 1254 1244 1244 1192 1153 1077 1022 1072 1080 1147 1079 1089 1036 1025 1229 1196 1062 982 1081 1015 964 1030 1085 955 908 863 882 945 889 758 724 661 636 727 895 960 881 844 775 768 811 824 888 791 723 818 722 766 516 368 400 598 418 167 174 175 188 135 107 183 109 93 286 195 327 172 98 73 64 40 48 29 132 68 133 108 69 135 82 113 70 68 48 47 75 42 42 10 0 0 0 0 0 0 0 0 0 0 0 0 0 0 0 0 0 0 0 0 0 0 0 0 0 0 0 0 0 0 0 0 0 0 0 0 0 0 0 0 0 0 0 0 0 0 0 0 0 0 0 0 0 0 0 0 0 0 0 0 0 0 0 0 0 0 0 0 0 0 0 0 0 0 0 0 0 0 0 0 0 0 0 0 0 0 0 0 0 0 0 0 0 0 0 0 0 0 0 0 0 0 0 0 0 0 0 0 0 0 0 0 0 0 0 0 0 0 0 0 0 0 0 0 0 0 0 0 0 0 0 0 0 0 0 0 0
0 0 0 0 0 0 0 0 0 0 0 0 0 0 0 0 0 0 0 0 0 0 0 0 0 0 0 0 0 0 0 0 0 0 0 0 0 0 0 0 0 0 0 0 0 0 0 0 0 0 0 0 0 0 0 0 0 0 0 0 0 0 0 0 0 0 0 0 0 0 0 0 0 0 0 0 0 0 0 0 0 0 0 0 0 0 0 0 0 0 0 0 0 0 0 0 0 0 0 0 0 0 0 0 0 0 0 0 0 0 0 0 0 0 0 0 0 0 0 0 0 0 0 0 0 0 0 0 0 0 0 0 0 0 0 0 0 0 0 0 0 0 0 0 0 0 0 0 0 0 0 0 0 0 0 0 0 0 0 0 0 0 0 0 0 0 0 0 0 0 0 0 0 0 0 0 0 0 0 0 0 0 0 0 0 0 0 0 0 0 0 0 0 0 0 0 0 0 0 0 0 0 0 0 0 0 0 0 0 0 0 0 0 0 0 0 0 0 0 0 0 0 0 0 0 0 0 0 0 0 0 0 0 0 0 0 0 0 0 0 0 7 11 16 17 18 13 28 38 37 41 30 35 25 33 50 49 45 67 46 41 38 52 46 62 83 79 83 68 69 80 99 125 108 115 125 112 105 134 138 152 142 121 131 146 190 255 221 336 414 360 303 307 310 324 337 355 322 426 381 272 226 244 195 220 197 199 210 211 237 204 193 159 184 172 155 157 159 179 186 185 180 203 210 213 234 207 234 254 293 308 261 257 285 308 267 268 281 251 245 241 298 278 265 260 233 238 237 240 264 271 256 245 273 274 260 284 295 261 266 259 262 276 275 316 320 319 322 364 439 441 436 463 481 516 508 503 505 521 530 586 565 522 550 542 562 564 563 560 567 571 573 573 599 622 612 607 612 608 613 622 632 752 805 813 826 830 808 814 937 998 1029 970 953 942 986 1002 981 959 947 963 975 960 879 785 753 731 734 693 703 698 699 673 651 675 642 684 695 664 675 722 670 682 677 687 651 668 695 690 721 736 678 687 747 991 967 907 894 889 901 921 877 869 850 860 841 814 821 856 859 856 805 858 871 824 829 800 808 816 850 859 866 863 855 827 832 814 790 801 821 842 820 836 915 935 1027 1003 1031 1331 1233 981 916 929 887 858 925 966 1101 1153 1154 1150 1035 1094 1405 1328 1122 881 878 846 803 746 825 784 869 830 739 770 815 824 793 841 823 814 850 853 823 838 937 931 897 1152 945 998 933 919 1114 975 981 1038 1150 1131 1310 1446 1290 1111 1044 1018 1003 1017 1010 958 1110 1091 1019 946 962 976 992 1083 1281 1195 1017 1039 1025 1089 1055 1068 1142 1027 1135 991 900 820 832 843 826 823 847 780 806 859 1074 911 1017 878 1069 1025 1110 1283 1403 1357 1330 1257 1174 1240 1275 1091 1115 1105 1341 1458 1529 1432 1338 1424 1287 1237 1216 1317 1245 1216 1318 1314 1212 1258 1231 1247 1260 1229 1225 1234 1273 1151 1158 1154 1144 1126 1128 1042 960 1016 981 913 961 929 940 898 891 922 929 935 920 925 843 802 839 784 776 776 835 915 821 832 798 790 821 805 813 803 850 846 967 1055 959 882 859 855 907 1024 897 853 842 811 840 888 856 883 917 891 918 872 887 1002 1112 1204 1287 1271 1246 1249 1256 1204 1099 1082 1039 1066 1064 1148 1089 1037 1040 1140 1188 1159 988 1078 977 842 910 884 882 889 871 915 914 984 749 768 766 670 633 844 923 892 759 790 705 819 808 717 809 541 854 834 818 665 496 705 671 298 303 275 197 332 260 151 138 122 90 243 162 250 260 47 137 93 166 40 26 103 81 85 113 151 96 84 76 66 76 60 88 52 52 29 6 0 0 0 0 0 0 0 0 0 0 0 0 0 0 0 0 0 0 0 0 0 0 0 0 0 0 0 0 0 0 0 0 0 0 0 0 0 0 0 0 0 0 0 0 0 0 0 0 0 0 0 0 0 0 0 0 0 0 0 0 0 0 0 0 0 0 0 0 0 0 0 0 0 0 0 0 0 0 0 0 0 0 0 0 0 0 0 0 0 0 0 0 0 0 0 0 0 0 0 0 0 0 0 0 0 0 0 0 0 0 0 0 0 0 0 0 0 0 0 0 0 0 0 0 0 0 0 0 0 0 0 0 0 0 0 0 0
0 0 0 0 0 0 0 0 0 0 0 0 0 0 0 0 0 0 0 0 0 0 0 0 0 0 0 0 0 0 0 0 0 0 0 0 0 0 0 0 0 0 0 0 0 0 0 0 0 0 0 0 0 0 0 0 0 0 0 0 0 0 0 0 0 0 0 0 0 0 0 0 0 0 0 0 0 0 0 0 0 0 0 0 0 0 0 0 0 0 0 0 0 0 0 0 0 0 0 0 0 0 0 0 0 0 0 0 0 0 0 0 0 0 0 0 0 0 0 0 0 0 0 0 0 0 0 0 0 0 0 0 0 0 0 0 0 0 0 0 0 0 0 0 0 0 0 0 0 0 0 0 0 0 0 0 0 0 0 0 0 0 0 0 0 0 0 0 0 0 0 0 0 0 0 0 0 0 0 0 0 0 0 0 0 0 0 0 0 0 0 0 0 0 0 0 0 0 0 0 0 0 0 0 0 0 0 0 0 0 0 0 0 0 0 0 0 0 0 0 0 0 0 0 0 0 0 0 0 0 0 0 0 0 0 0 0 0 0 0 0 7 12 13 13 19 20 25 35 54 76 30 25 33 36 49 62 52 69 62 50 40 49 51 64 70 87 90 82 80 89 97 103 109 129 135 111 123 139 167 152 162 130 137 182 217 307 302 242 277 454 456 318 317 342 311 337 326 307 323 265 233 211 213 221 211 202 213 233 223 231 177 161 184 183 161 158 163 173 183 187 200 199 185 204 222 228 236 280 288 267 270 262 247 289 295 291 292 278 243 256 273 252 269 282 250 247 247 257 251 273 249 239 243 248 271 261 275 253 259 265 274 260 278 321 303 307 310 411 445 478 471 474 466 508 491 517 508 507 527 579 606 531 558 578 547 596 600 586 575 585 581 576 610 611 625 637 624 617 612 641 662 748 815 815 827 847 838 801 971 986 1022 1030 1016 953 929 974 977 987 977 994 1018 895 827 811 772 739 737 772 730 693 725 671 641 649 650 657 687 675 686 737 676 705 672 655 646 679 682 667 694 719 693 710 841 1027 961 920 917 876 929 900 912 888 875 863 832 807 854 822 846 819 818 835 846 817 823 812 847 829 861 821 884 857 840 842 800 801 795 796 835 864 858 815 866 918 942 987 1069 1193 1253 1214 977 993 893 891 877 871 1035 1076 1127 1148 1215 1260 1262 1445 1320 888 793 760 750 822 897 797 884 827 839 766 793 772 844 820 841 838 835 829 826 847 848 836 849 881 861 1046 960 946 1011 1018 980 970 973 1102 1375 1513 1391 1127 1066 1227 1154 1084 1084 993 955 963 1002 951 926 961 972 993 1048 1040 1005 999 1058 1046 1093 1114 1079 987 991 1050 902 821 886 869 804 831 847 807 794 773 819 924 1029 919 1032 1004 1264 1277 1362 1499 1428 1419 1250 1157 1143 1094 1104 1175 1456 1421 1346 1337 1261 1273 1248 1206 1217 1366 1321 1217 1352 1250 1215 1250 1181 1219 1262 1207 1180 1234 1321 1272 1137 1259 1233 1139 1036 1006 973 986 1030 964 964 893 944 904 891 906 930 879 952 930 854 817 788 795 825 780 825 913 844 830 809 807 802 841 811 810 854 849 984 1050 1027 933 866 869 919 958 892 928 832 819 815 871 923 901 907 949 901 895 880 937 1048 1074 1181 1279 1248 1246 1255 1209 1069 1062 1016 1075 983 1064 1077 1059 1017 1082 1077 1107 1049 1057 1014 875 894 865 873 886 833 857 898 929 890 863 906 824 645 621 829 829 826 732 704 798 772 524 424 555 748 845 713 693 652 684 574 451 547 394 297 271 186 152 127 123 91 199 155 91 63 48 173 177 117 65 90 57 43 98 139 129 120 124 80 69 49 47 56 23 41 7 10 0 0 0 0 0 0 0 0 0 0 0 0 0 0 0 0 0 0 0 0 0 0 0 0 0 0 0 0 0 0 0 0 0 0 0 0 0 0 0 0 0 0 0 0 0 0 0 0 0 0 0 0 0 0 0 0 0 0 0 0 0 0 0 0 0 0 0 0 0 0 0 0 0 0 0 0 0 0 0 0 0 0 0 0 0 0 0 0 0 0 0 0 0 0 0 0 0 0 0 0 0 0 0 0 0 0 0 0 0 0 0 0 0 0 0 0 0 0 0 0 0 0 0 0 0 0 0 0 0 0 0 0 0 0 0 0 0
0 0 0 0 0 0 0 0 0 0 0 0 0 0 0 0 0 0 0 0 0 0 0 0 0 0 0 0 0 0 0 0 0 0 0 0 0 0 0 0 0 0 0 0 0 0 0 0 0 0 0 0 0 0 0 0 0 0 0 0 0 0 0 0 0 0 0 0 0 0 0 0 0 0 0 0 0 0 0 0 0 0 0 0 0 0 0 0 0 0 0 0 0 0 0 0 0 0 0 0 0 0 0 0 0 0 0 0 0 0 0 0 0 0 0 0 0 0 0 0 0 0 0 0 0 0 0 0 0 0 0 0 0 0 0 0 0 0 0 0 0 0 0 0 0 0 0 0 0 0 0 0 0 0 0 0 0 0 0 0 0 0 0 0 0 0 0 0 0 0 0 0 0 0 0 0 0 0 0 0 0 0 0 0 0 0 0 0 0 0 0 0 0 0 0 0 0 0 0 0 0 0 0 0 0 0 0 0 0 0 0 0 0 0 0 0 0 0 0 0 0 0 0 0 0 0 0 0 0 0 0 0 0 0 0 0 0 0 0 0 0 7 10 15 25 36 44 25 18 42 32 48 43 37 55 60 62 55 64 55 42 48 49 65 66 86 95 78 84 82 104 111 82 108 152 122 122 129 153 188 174 195 142 138 154 212 259 249 327 244 447 354 341 337 312 314 296 334 298 307 249 212 221 217 235 214 213 228 227 206 218 231 167 181 215 209 208 167 163 183 199 200 200 212 204 207 223 248 263 269 276 247 270 272 280 274 296 280 288 257 261 275 275 257 229 227 241 232 231 271 263 256 254 261 270 271 246 260 251 280 277 272 283 312 335 337 337 365 482 440 493 500 507 522 499 503 505 522 529 539 541 598 548 561 587 598 548 601 611 583 591 607 579 580 659 656 607 601 611 645 692 651 782 819 788 721 919 999 903 859 945 990 1008 954 946 944 1015 994 919 913 928 891 876 794 789 783 838 915 869 858 762 711 782 701 644 656 661 652 668 774 716 692 687 702 678 671 682 662 660 686 667 691 693 729 896 998 923 895 885 959 914 925 937 930 865 846 812 832 815 881 836 819 863 877 833 828 815 860 896 884 868 847 881 842 811 826 808 801 820 803 834 872 871 832 842 872 870 1047 1082 1242 1285 1158 943 907 896 870 902 1064 1070 1081 1109 1165 1148 1191 1397 1385 1056 934 790 818 970 1075 1010 1009 1113 983 761 784 794 864 817 841 817 789 823 859 820 844 913 864 836 867 860 911 942 936 950 991 944 1068 1007 1060 1393 1475 1292 1275 1373 1423 1317 1250 1084 1097 1016 1016 936 1054 961 1124 1109 1175 1103 1001 1131 1187 1166 1113 1262 1245 1130 1002 884 1043 895 878 829 867 842 811 776 799 856 867 917 942 829 1008 1218 1202 1303 1351 1514 1433 1404 1447 1391 1159 1106 1199 1322 1310 1290 1272 1313 1280 1318 1244 1230 1191 1230 1207 1203 1224 1189 1205 1218 1216 1209 1278 1292 1230 1189 1231 1160 1198 1244 1202 1140 1088 970 978 961 942 979 946 929 909 883 880 891 892 947 947 928 871 839 831 813 830 782 829 874 862 844 807 818 803 848 836 821 878 943 912 942 1067 1009 895 888 912 927 967 893 832 854 812 864 918 911 931 976 962 910 942 945 1020 1161 1128 1272 1236 1200 1229 1192 1090 1080 1024 1047 986 991 1073 1112 1048 1084 963 958 1024 1302 1053 1046 1086 1039 921 924 947 933 818 894 966 964 877 954 714 631 602 816 844 826 810 772 754 823 590 440 761 740 643 583 606 865 913 757 641 573 387 343 222 114 135 114 93 325 97 94 191 77 134 130 99 77 71 34 42 47 64 101 86 74 38 48 55 35 21 47 14 10 0 0 0 0 0 0 0 0 0 0 0 0 0 0 0 0 0 0 0 0 0 0 0 0 0 0 0 0 0 0 0 0 0 0 0 0 0 0 0 0 0 0 0 0 0 0 0 0 0 0 0 0 0 0 0 0 0 0 0 0 0 0 0 0 0 0 0 0 0 0 0 0 0 0 0 0 0 0 0 0 0 0 0 0 0 0 0 0 0 0 0 0 0 0 0 0 0 0 0 0 0 0 0 0 0 0 0 0 0 0 0 0 0 0 0 0 0 0 0 0 0 0 0 0 0 0 0 0 0 0 0 0 0 0 0 0 0 0
0 0 0 0 0 0 0 0 0 0 0 0 0 0 0 0 0 0 0 0 0 0 0 0 0 0 0 0 0 0 0 0 0 0 0 0 0 0 0 0 0 0 0 0 0 0 0 0 0 0 0 0 0 0 0 0 0 0 0 0 0 0 0 0 0 0 0 0 0 0 0 0 0 0 0 0 0 0 0 0 0 0 0 0 0 0 0 0 0 0 0 0 0 0 0 0 0 0 0 0 0 0 0 0 0 0 0 0 0 0 0 0 0 0 0 0 0 0 0 0 0 0 0 0 0 0 0 0 0 0 0 0 0 0 0 0 0 0 0 0 0 0 0 0 0 0 0 0 0 0 0 0 0 0 0 0 0 0 0 0 0 0 0 0 0 0 0 0 0 0 0 0 0 0 0 0 0 0 0 0 0 0 0 0 0 0 0 0 0 0 0 0 0 0 0 0 0 0 0 0 0 0 0 0 0 0 0 0 0 0 0 0 0 0 0 0 0 0 0 0 0 0 0 0 0 0 0 0 0 0 0 0 0 0 0 0 0 0 0 0 0 7 9 16 38 46 37 30 38 25 29 42 69 53 44 52 41 56 45 53 54 53 60 67 64 69 64 62 80 88 91 64 81 103 146 111 111 131 176 174 137 193 148 185 173 164 184 209 257 221 327 328 413 381 334 306 310 293 342 256 256 224 229 234 224 241 225 200 222 198 190 202 170 195 205 204 207 175 157 184 193 186 180 201 229 225 208 221 240 251 270 248 283 266 273 277 278 300 290 272 273 273 300 277 232 247 245 236 238 248 256 250 242 282 291 300 249 257 258 278 265 294 280 297 320 365 362 376 488 473 457 484 477 489 491 501 495 516 515 560 532 536 567 557 577 644 565 611 602 580 595 631 605 581 625 649 676 609 612 610 709 726 765 711 703 870 807 954 964 891 918 966 1010 984 974 1026 1009 1028 924 859 850 921 859 842 772 756 776 848 856 822 741 692 711 792 643 649 670 685 667 664 675 688 711 682 700 665 715 676 677 700 674 693 729 763 828 924 951 922 928 971 935 917 901 864 870 834 815 824 846 850 824 825 859 859 816 813 837 873 893 951 904 896 842 831 835 821 830 786 829 881 1031 1038 855 883 839 837 865 877 1035 1123 1228 1241 1141 993 903 877 918 1053 1110 1108 1108 1093 1139 973 1038 1237 1144 974 788 837 963 1250 1200 884 1016 888 768 749 778 801 795 809 807 787 793 821 851 899 904 1004 876 871 873 853 877 879 949 959 1045 1040 1019 1157 1453 1518 1479 1460 1452 1459 1393 1260 1214 1195 1197 1136 1019 1186 1106 1211 1307 1203 1112 1022 1042 1244 1333 1320 1413 1286 1324 1158 1093 1044 1045 853 820 848 898 830 810 769 820 791 800 804 968 1006 1192 1284 1305 1459 1472 1378 1347 1322 1305 1355 1273 1125 1334 1259 1287 1267 1364 1302 1269 1218 1223 1204 1192 1209 1193 1189 1181 1231 1176 1208 1207 1238 1197 1295 1179 1184 1158 1221 1209 1250 1258 1166 1010 962 951 967 933 941 944 899 906 902 921 922 958 997 918 918 872 826 852 790 784 825 888 857 888 820 850 831 838 821 832 855 931 926 1063 1172 1056 925 890 908 926 1025 913 839 892 824 836 907 891 936 991 984 930 957 979 1161 1067 1163 1268 1243 1209 1177 1039 1038 981 969 933 1058 978 1037 1009 1115 1061 1053 1034 1146 1065 992 1015 1018 1089 1015 944 982 924 839 916 840 846 911 767 844 558 413 652 718 707 705 754 756 746 737 378 631 768 709 659 568 858 910 746 483 419 419 255 281 172 95 101 89 117 107 234 293 151 182 118 100 109 93 70 32 81 72 133 79 46 14 78 47 65 52 42 18 11 0 0 0 0 0 0 0 0 0 0 0 0 0 0 0 0 0 0 0 0 0 0 0 0 0 0 0 0 0 0 0 0 0 0 0 0 0 0 0 0 0 0 0 0 0 0 0 0 0 0 0 0 0 0 0 0 0 0 0 0 0 0 0 0 0 0 0 0 0 0 0 0 0 0 0 0 0 0 0 0 0 0 0 0 0 0 0 0 0 0 0 0 0 0 0 0 0 0 0 0 0 0 0 0 0 0 0 0 0 0 0 0 0 0 0 0 0 0 0 0 0 0 0 0 0 0 0 0 0 0 0 0 0 0 0 0 0 0
0 0 0 0 0 0 0 0 0 0 0 0 0 0 0 0 0 0 0 0 0 0 0 0 0 0 0 0 0 0 0 0 0 0 0 0 0 0 0 0 0 0 0 0 0 0 0 0 0 0 0 0 0 0 0 0 0 0 0 0 0 0 0 0 0 0 0 0 0 0 0 0 0 0 0 0 0 0 0 0 0 0 0 0 0 0 0 0 0 0 0 0 0 0 0 0 0 0 0 0 0 0 0 0 0 0 0 0 0 0 0 0 0 0 0 0 0 0 0 0 0 0 0 0 0 0 0 0 0 0 0 0 0 0 0 0 0 0 0 0 0 0 0 0 0 0 0 0 0 0 0 0 0 0 0 0 0 0 0 0 0 0 0 0 0 0 0 0 0 0 0 0 0 0 0 0 0 0 0 0 0 0 0 0 0 0 0 0 0 0 0 0 0 0 0 0 0 0 0 0 0 0 0 0 0 0 0 0 0 0 0 0 0 0 0 0 0 0 0 0 0 0 0 0 0 0 0 0 0 0 0 0 0 0 0 0 0 0 0 0 0 7 8 12 13 20 18 23 44 54 43 74 54 39 33 53 38 37 50 45 44 48 52 59 52 53 58 46 78 81 67 63 98 112 109 86 107 140 133 137 130 156 151 154 159 146 172 173 188 206 295 401 359 311 309 295 295 291 302 288 238 259 244 230 239 261 214 214 220 188 199 190 169 230 204 236 221 197 176 176 169 170 185 189 217 240 250 241 278 259 274 274 271 279 283 304 299 299 281 279 260 277 266 300 287 236 291 242 235 260 240 246 249 270 292 277 263 249 254 256 259 301 289 293 341 372 368 390 369 492 503 476 482 511 524 495 509 499 509 538 573 558 601 619 567 615 633 611 616 608 599 645 604 590 620 701 654 627 607 619 635 636 651 751 892 919 944 880 944 906 926 1007 970 955 994 961 965 979 949 889 851 843 846 855 743 749 772 784 750 763 699 759 772 789 655 644 647 673 678 667 665 699 753 742 691 670 681 707 711 719 714 689 698 770 847 931 999 922 942 960 969 955 919 872 828 822 823 839 837 865 861 848 877 871 849 807 814 839 841 955 908 866 816 829 835 827 791 836 922 1101 1153 1063 855 872 856 872 842 846 865 1117 1272 1280 1216 1239 937 920 917 1071 1110 1086 1166 1167 1154 1026 877 925 1030 954 851 853 899 1028 895 874 910 914 759 786 765 818 803 779 797 830 824 801 886 876 913 1049 907 862 851 879 882 904 907 1030 1256 1083 1000 1090 1405 1411 1528 1504 1488 1486 1478 1273 1166 1131 1150 1066 1039 1120 1025 1157 1195 1259 1103 1087 1265 1272 1355 1432 1366 1348 1193 1067 968 942 989 907 882 866 867 874 902 796 809 819 927 885 1074 1134 1194 1308 1346 1348 1432 1348 1321 1351 1319 1287 1338 1129 1318 1252 1224 1213 1306 1327 1236 1242 1232 1291 1189 1182 1183 1197 1229 1218 1216 1180 1232 1186 1184 1256 1180 1247 1203 1216 1207 1230 1214 1246 1007 942 969 953 933 947 929 922 879 878 927 894 946 989 954 876 847 827 846 819 787 840 862 838 837 819 866 849 879 891 865 950 924 950 1059 1052 1160 937 936 929 949 974 951 847 857 853 865 905 909 939 951 1121 1162 1106 1100 1081 1271 1214 1299 1284 1238 1174 1066 1049 1056 1055 993 936 929 1035 1000 1033 1037 983 1002 1015 1026 1006 964 964 1024 1040 1102 992 850 821 804 790 807 931 893 767 487 480 431 712 559 740 680 563 604 680 350 602 837 688 542 503 490 775 509 547 336 263 179 200 101 147 237 130 188 243 161 231 157 133 97 125 119 40 25 64 93 104 125 86 75 25 32 33 36 27 53 8 8 0 0 0 0 0 0 0 0 0 0 0 0 0 0 0 0 0 0 0 0 0 0 0 0 0 0 0 0 0 0 0 0 0 0 0 0 0 0 0 0 0 0 0 0 0 0 0 0 0 0 0 0 0 0 0 0 0 0 0 0 0 0 0 0 0 0 0 0 0 0 0 0 0 0 0 0 0 0 0 0 0 0 0 0 0 0 0 0 0 0 0 0 0 0 0 0 0 0 0 0 0 0 0 0 0 0 0 0 0 0 0 0 0 0 0 0 0 0 0 0 0 0 0 0 0 0 0 0 0 0 0 0 0 0 0 0 0 0
0 0 0 0 0 0 0 0 0 0 0 0 0 0 0 0 0 0 0 0 0 0 0 0 0 0 0 0 0 0 0 0 0 0 0 0 0 0 0 0 0 0 0 0 0 0 0 0 0 0 0 0 0 0 0 0 0 0 0 0 0 0 0 0 0 0 0 0 0 0 0 0 0 0 0 0 0 0 0 0 0 0 0 0 0 0 0 0 0 0 0 0 0 0 0 0 0 0 0 0 0 0 0 0 0 0 0 0 0 0 0 0 0 0 0 0 0 0 0 0 0 0 0 0 0 0 0 0 0 0 0 0 0 0 0 0 0 0 0 0 0 0 0 0 0 0 0 0 0 0 0 0 0 0 0 0 0 0 0 0 0 0 0 0 0 0 0 0 0 0 0 0 0 0 0 0 0 0 0 0 0 0 0 0 0 0 0 0 0 0 0 0 0 0 0 0 0 0 0 0 0 0 0 0 0 0 0 0 0 0 0 0 0 0 0 0 0 0 0 0 0 0 0 0 0 0 0 0 0 0 0 0 0 0 0 0 0 0 0 0 0 7 9 15 37 28 44 32 48 73 39 38 32 26 25 45 30 43 44 46 31 36 39 46 47 43 45 45 52 51 61 79 95 86 72 100 94 145 121 108 148 164 136 142 148 180 205 161 215 241 343 411 448 302 297 302 278 277 278 291 287 298 272 262 260 242 234 215 213 205 209 174 186 180 210 221 226 215 195 187 189 188 187 188 208 222 230 215 251 296 293 289 255 277 293 316 299 307 282 266 269 280 261 234 237 236 285 269 241 235 237 260 251 260 290 282 268 273 263 268 264 289 324 320 342 354 396 403 437 466 526 489 492 532 555 550 538 499 511 540 537 591 560 662 633 568 668 642 645 630 601 604 636 611 584 642 612 611 612 630 642 666 665 931 963 867 1008 987 974 945 963 969 954 961 918 911 896 893 890 907 871 820 835 798 747 735 752 809 731 741 795 916 834 765 653 647 672 678 704 672 681 680 734 730 701 706 727 738 744 779 749 729 737 777 754 874 944 993 952 994 978 978 898 890 855 825 855 832 844 880 884 922 863 873 827 821 814 847 887 894 870 886 903 824 825 791 795 831 969 1069 1110 1090 1114 883 863 866 865 888 884 1083 1232 1366 1297 1236 1180 1237 1097 1226 1167 1188 1172 1201 1155 1115 871 886 1022 856 854 874 844 916 822 782 767 784 755 765 778 770 821 829 896 907 810 891 858 919 1015 1212 1140 972 884 890 940 922 1027 1166 1363 1354 1121 1041 1289 1464 1517 1527 1505 1557 1532 1245 1244 1221 1202 1102 1126 1142 1168 1194 1183 1322 1323 1322 1355 1387 1409 1377 1236 1220 1050 1034 985 1034 989 904 895 927 913 864 818 780 800 815 840 848 963 1072 1174 1324 1309 1353 1316 1304 1333 1331 1378 1348 1390 1176 1231 1257 1246 1214 1238 1238 1262 1261 1221 1247 1271 1204 1162 1175 1194 1184 1228 1189 1168 1176 1266 1175 1180 1185 1214 1237 1208 1133 1175 1106 962 962 954 957 904 918 912 937 889 893 929 926 905 964 936 913 857 866 816 832 818 891 827 869 919 834 846 876 854 876 872 911 940 932 1050 1045 1237 981 942 951 924 1062 967 900 911 876 861 925 1094 933 938 928 1201 1003 1211 1350 1237 1299 1308 1220 1228 1184 1139 1102 1049 985 954 955 921 941 941 990 974 965 970 992 936 1035 926 921 993 1011 1159 979 876 760 761 801 709 799 823 700 576 383 439 404 472 582 561 700 833 471 389 631 874 711 556 773 684 408 414 383 329 314 249 304 278 244 232 158 241 278 249 205 227 136 153 165 60 122 99 72 57 26 97 73 31 40 29 40 32 37 30 10 1 0 0 0 0 0 0 0 0 0 0 0 0 0 0 0 0 0 0 0 0 0 0 0 0 0 0 0 0 0 0 0 0 0 0 0 0 0 0 0 0 0 0 0 0 0 0 0 0 0 0 0 0 0 0 0 0 0 0 0 0 0 0 0 0 0 0 0 0 0 0 0 0 0 0 0 0 0 0 0 0 0 0 0 0 0 0 0 0 0 0 0 0 0 0 0 0 0 0 0 0 0 0 0 0 0 0 0 0 0 0 0 0 0 0 0 0 0 0 0 0 0 0 0 0 0 0 0 0 0 0 0 0 0 0 0 0 0 0
0 0 0 0 0 0 0 0 0 0 0 0 0 0 0 0 0 0 0 0 0 0 0 0 0 0 0 0 0 0 0 0 0 0 0 0 0 0 0 0 0 0 0 0 0 0 0 0 0 0 0 0 0 0 0 0 0 0 0 0 0 0 0 0 0 0 0 0 0 0 0 0 0 0 0 0 0 0 0 0 0 0 0 0 0 0 0 0 0 0 0 0 0 0 0 0 0 0 0 0 0 0 0 0 0 0 0 0 0 0 0 0 0 0 0 0 0 0 0 0 0 0 0 0 0 0 0 0 0 0 0 0 0 0 0 0 0 0 0 0 0 0 0 0 0 0 0 0 0 0 0 0 0 0 0 0 0 0 0 0 0 0 0 0 0 0 0 0 0 0 0 0 0 0 0 0 0 0 0 0 0 0 0 0 0 0 0 0 0 0 0 0 0 0 0 0 0 0 0 0 0 0 0 0 0 0 0 0 0 0 0 0 0 0 0 0 0 0 0 0 0 0 0 0 0 0 0 0 0 0 0 0 0 0 0 0 0 0 0 0 0 7 9 17 42 34 36 55 68 49 30 24 23 20 20 24 27 35 44 39 27 31 39 37 44 43 39 47 55 61 72 54 59 66 65 75 127 90 115 123 117 152 131 157 148 165 206 169 234 247 370 418 417 292 300 287 298 288 283 281 289 299 268 283 251 253 235 237 211 234 192 173 193 217 198 219 241 240 205 206 194 175 176 194 204 210 217 210 226 242 257 268 271 270 282 283 301 296 283 274 260 246 236 238 288 265 274 271 240 240 246 238 247 252 285 283 276 285 270 273 285 312 309 314 343 382 444 414 466 485 543 488 531 544 594 545 528 503 505 512 517 543 572 652 644 596 604 648 648 640 628 604 623 610 625 586 594 642 619 637 646 680 704 891 906 927 1033 1009 968 957 988 981 977 989 988 899 846 876 849 887 846 817 809 759 784 746 736 739 773 713 912 814 798 700 657 654 661 678 698 707 694 714 753 733 724 684 720 761 753 732 736 743 740 776 793 903 888 864 936 973 978 934 898 874 857 838 864 822 840 834 846 874 849 836 836 831 844 861 859 844 835 816 827 803 834 804 807 901 1138 996 1056 1128 1004 988 857 896 871 890 878 1077 1250 1317 1356 1241 1261 1346 1341 1249 1230 1293 1303 1203 1150 922 893 852 845 858 885 843 894 911 849 811 811 770 754 825 779 768 862 841 855 1013 945 834 874 909 1074 1098 1089 1044 903 878 895 1085 1082 1237 1412 1461 1276 1102 1260 1450 1566 1566 1572 1508 1387 1250 1368 1228 1270 1205 1165 1209 1131 1110 1096 1177 1373 1457 1409 1448 1373 1288 1198 1154 1033 1001 1034 973 1089 1095 943 855 815 851 838 791 808 805 843 812 841 930 1128 1203 1228 1233 1306 1228 1289 1343 1238 1406 1428 1284 1175 1190 1232 1287 1249 1256 1238 1250 1245 1323 1223 1207 1185 1183 1144 1149 1149 1145 1143 1170 1195 1211 1186 1199 1216 1200 1210 1186 1060 941 961 958 980 922 925 937 913 885 887 915 930 934 927 952 943 901 899 833 847 803 800 832 878 898 872 845 866 848 879 868 925 916 939 958 1029 1013 1064 1110 958 932 958 1053 955 1055 915 898 926 952 909 1086 1031 1003 927 1083 1184 1414 1343 1340 1240 1244 1194 1214 1131 1114 1027 1049 968 976 986 917 933 972 972 897 904 902 924 997 937 973 1011 955 1037 986 853 753 777 792 651 807 704 815 635 592 464 379 547 536 551 696 657 410 433 572 820 653 683 786 604 717 557 533 390 298 328 287 390 367 395 178 275 410 164 162 200 119 113 69 90 112 70 59 35 72 53 60 23 14 48 53 37 20 13 5 0 0 0 0 0 0 0 0 0 0 0 0 0 0 0 0 0 0 0 0 0 0 0 0 0 0 0 0 0 0 0 0 0 0 0 0 0 0 0 0 0 0 0 0 0 0 0 0 0 0 0 0 0 0 0 0 0 0 0 0 0 0 0 0 0 0 0 0 0 0 0 0 0 0 0 0 0 0 0 0 0 0 0 0 0 0 0 0 0 0 0 0 0 0 0 0 0 0 0 0 0 0 0 0 0 0 0 0 0 0 0 0 0 0 0 0 0 0 0 0 0 0 0 0 0 0 0 0 0 0 0 0 0 0 0 0 0 0 0
0 0 0 0 0 0 0 0 0 0 0 0 0 0 0 0 0 0 0 0 0 0 0 0 0 0 0 0 0 0 0 0 0 0 0 0 0 0 0 0 0 0 0 0 0 0 0 0 0 0 0 0 0 0 0 0 0 0 0 0 0 0 0 0 0 0 0 0 0 0 0 0 0 0 0 0 0 0 0 0 0 0 0 0 0 0 0 0 0 0 0 0 0 0 0 0 0 0 0 0 0 0 0 0 0 0 0 0 0 0 0 0 0 0 0 0 0 0 0 0 0 0 0 0 0 0 0 0 0 0 0 0 0 0 0 0 0 0 0 0 0 0 0 0 0 0 0 0 0 0 0 0 0 0 0 0 0 0 0 0 0 0 0 0 0 0 0 0 0 0 0 0 0 0 0 0 0 0 0 0 0 0 0 0 0 0 0 0 0 0 0 0 0 0 0 0 0 0 0 0 0 0 0 0 0 0 0 0 0 0 0 0 0 0 0 0 0 0 0 0 0 0 0 0 0 0 0 0 0 0 0 0 0 0 0 0 0 0 0 0 0 7 10 18 44 57 49 57 72 42 22 18 24 20 21 24 23 37 25 32 37 34 38 34 42 35 46 57 70 89 77 74 99 68 94 73 86 122 117 97 106 120 128 167 174 167 216 179 224 267 333 347 284 313 289 289 275 289 283 280 279 297 277 306 275 250 261 232 246 210 180 177 190 196 212 219 241 223 223 229 194 180 188 194 185 205 219 257 258 258 257 289 274 290 278 305 325 330 283 269 261 253 244 266 249 271 305 273 246 238 252 241 260 250 252 261 282 289 298 281 318 299 342 322 347 404 417 436 443 491 548 541 528 666 592 585 580 529 504 514 527 572 576 614 633 577 637 649 647 644 655 626 621 622 621 589 635 651 640 631 631 646 708 932 914 952 1004 1039 1030 994 1000 999 971 934 962 868 846 878 825 848 825 801 802 784 782 746 747 770 736 785 897 860 714 682 657 664 674 689 666 666 679 703 768 749 705 703 713 735 750 707 718 740 743 788 853 864 809 846 863 863 922 910 874 844 839 871 866 862 854 855 826 838 844 858 849 833 869 896 847 845 822 820 828 835 822 832 825 872 1007 941 953 971 904 1079 1021 1039 907 858 890 1068 1153 1334 1320 1360 1306 1322 1392 1266 1240 1348 1397 1267 1051 877 917 861 888 940 915 909 896 911 856 818 819 810 782 798 897 843 841 862 1028 1253 1153 1029 860 847 910 911 986 959 882 872 883 1072 1013 1162 1381 1530 1356 1105 1358 1449 1451 1513 1500 1443 1275 1395 1262 1314 1419 1378 1245 1260 1204 1151 1134 1117 1289 1306 1493 1401 1346 1313 1221 1036 1004 992 917 998 1019 1144 940 856 875 851 845 817 780 810 856 825 810 821 885 975 1094 1242 1225 1218 1396 1433 1277 1280 1417 1377 1206 1273 1231 1208 1198 1218 1234 1229 1211 1232 1202 1203 1185 1219 1196 1159 1177 1202 1168 1171 1147 1154 1213 1185 1197 1197 1227 1158 1031 1093 1042 952 946 960 955 919 888 904 936 910 921 942 921 953 962 956 908 884 890 825 887 814 850 908 896 852 894 861 847 890 872 902 996 985 1060 1033 1007 979 960 977 932 1005 982 970 919 905 918 962 1029 1124 1145 1072 968 928 1054 1321 1375 1388 1311 1343 1147 1147 1091 1122 1055 972 982 989 985 949 1036 972 940 941 961 931 953 879 934 915 875 844 843 921 836 773 681 686 585 769 765 746 772 711 488 416 318 449 544 622 578 375 552 657 730 752 787 819 690 807 707 427 493 464 391 520 482 374 430 135 343 444 177 151 95 87 98 98 111 120 80 20 15 15 25 30 63 11 51 40 30 12 6 6 0 0 0 0 0 0 0 0 0 0 0 0 0 0 0 0 0 0 0 0 0 0 0 0 0 0 0 0 0 0 0 0 0 0 0 0 0 0 0 0 0 0 0 0 0 0 0 0 0 0 0 0 0 0 0 0 0 0 0 0 0 0 0 0 0 0 0 0 0 0 0 0 0 0 0 0 0 0 0 0 0 0 0 0 0 0 0 0 0 0 0 0 0 0 0 0 0 0 0 0 0 0 0 0 0 0 0 0 0 0 0 0 0 0 0 0 0 0 0 0 0 0 0 0 0 0 0 0 0 0 0 0 0 0 0 0 0 0 0
0 0 0 0 0 0 0 0 0 0 0 0 0 0 0 0 0 0 0 0 0 0 0 0 0 0 0 0 0 0 0 0 0 0 0 0 0 0 0 0 0 0 0 0 0 0 0 0 0 0 0 0 0 0 0 0 0 0 0 0 0 0 0 0 0 0 0 0 0 0 0 0 0 0 0 0 0 0 0 0 0 0 0 0 0 0 0 0 0 0 0 0 0 0 0 0 0 0 0 0 0 0 0 0 0 0 0 0 0 0 0 0 0 0 0 0 0 0 0 0 0 0 0 0 0 0 0 0 0 0 0 0 0 0 0 0 0 0 0 0 0 0 0 0 0 0 0 0 0 0 0 0 0 0 0 0 0 0 0 0 0 0 0 0 0 0 0 0 0 0 0 0 0 0 0 0 0 0 0 0 0 0 0 0 0 0 0 0 0 0 0 0 0 0 0 0 0 0 0 0 0 0 0 0 0 0 0 0 0 0 0 0 0 0 0 0 0 0 0 0 0 0 0 0 0 0 0 0 0 0 0 0 0 0 0 0 0 0 0 0 0 6 23 18 38 50 57 73 40 29 20 20 20 21 23 25 26 28 51 51 33 33 35 38 45 52 50 64 80 96 75 99 95 109 112 138 105 98 99 117 106 116 141 180 188 187 195 222 249 233 299 315 334 251 265 277 259 265 257 276 269 282 317 328 270 257 232 255 248 203 190 176 197 185 199 212 247 247 232 208 195 198 214 221 183 203 216 220 253 255 252 286 283 277 291 319 332 324 310 294 289 288 262 250 246 275 277 271 269 243 252 250 243 243 252 276 285 287 287 272 323 357 381 392 363 400 386 445 442 500 498 574 579 666 601 619 611 598 586 533 574 577 613 627 617 661 646 647 670 688 686 619 606 627 590 592 592 612 641 686 639 637 710 745 906 961 991 985 954 985 999 958 907 915 909 866 848 847 861 833 837 827 828 822 808 763 760 734 717 735 760 715 851 678 681 664 680 680 663 679 700 712 749 738 714 724 759 725 723 705 719 741 731 771 767 787 808 859 884 821 904 901 855 844 854 847 852 845 826 829 865 844 859 885 836 838 859 892 901 870 878 847 842 814 812 818 846 824 887 895 892 934 911 922 980 1045 1097 895 904 971 1110 1286 1388 1375 1390 1370 1305 1315 1268 1327 1366 1165 934 935 978 979 918 934 892 870 881 916 844 819 805 767 819 881 939 895 958 1046 1368 1402 1284 1305 1003 850 852 889 936 897 910 907 1020 1143 1015 1155 1267 1378 1262 1373 1243 1461 1494 1460 1489 1536 1475 1394 1302 1504 1438 1316 1219 1172 1193 1165 1210 1355 1165 1385 1352 1372 1261 1169 1054 1020 999 960 964 977 942 920 895 868 824 917 973 796 810 828 821 816 814 819 870 1094 1206 1402 1433 1438 1506 1354 1345 1222 1267 1341 1369 1195 1244 1343 1238 1280 1289 1207 1256 1226 1200 1205 1233 1195 1164 1151 1169 1277 1199 1199 1212 1167 1157 1188 1220 1198 1218 1215 1237 1249 1220 975 1025 967 938 971 951 935 921 910 940 955 934 968 969 916 895 870 867 863 837 861 863 964 907 851 860 906 866 887 910 923 933 1017 1052 1048 1016 1113 1057 963 971 983 1056 989 932 891 942 930 1118 1135 1048 1032 1021 995 1037 1273 1276 1275 1223 1242 1153 1105 1097 1109 1094 1036 1008 1068 928 1003 980 965 943 1038 1000 980 947 920 885 906 906 772 736 603 560 606 615 569 660 562 666 528 718 670 596 421 317 362 365 512 496 331 576 661 630 641 549 508 631 617 686 548 718 679 654 620 438 280 223 274 299 227 199 168 215 118 157 92 47 43 99 68 47 26 30 18 10 12 22 32 21 29 8 10 0 0 0 0 0 0 0 0 0 0 0 0 0 0 0 0 0 0 0 0 0 0 0 0 0 0 0 0 0 0 0 0 0 0 0 0 0 0 0 0 0 0 0 0 0 0 0 0 0 0 0 0 0 0 0 0 0 0 0 0 0 0 0 0 0 0 0 0 0 0 0 0 0 0 0 0 0 0 0 0 0 0 0 0 0 0 0 0 0 0 0 0 0 0 0 0 0 0 0 0 0 0 0 0 0 0 0 0 0 0 0 0 0 0 0 0 0 0 0 0 0 0 0 0 0 0 0 0 0 0 0 0 0 0 0 0 0 0 0
0 0 0 0 0 0 0 0 0 0 0 0 0 0 0 0 0 0 0 0 0 0 0 0 0 0 0 0 0 0 0 0 0 0 0 0 0 0 0 0 0 0 0 0 0 0 0 0 0 0 0 0 0 0 0 0 0 0 0 0 0 0 0 0 0 0 0 0 0 0 0 0 0 0 0 0 0 0 0 0 0 0 0 0 0 0 0 0 0 0 0 0 0 0 0 0 0 0 0 0 0 0 0 0 0 0 0 0 0 0 0 0 0 0 0 0 0 0 0 0 0 0 0 0 0 0 0 0 0 0 0 0 0 0 0 0 0 0 0 0 0 0 0 0 0 0 0 0 0 0 0 0 0 0 0 0 0 0 0 0 0 0 0 0 0 0 0 0 0 0 0 0 0 0 0 0 0 0 0 0 0 0 0 0 0 0 0 0 0 0 0 0 0 0 0 0 0 0 0 0 0 0 0 0 0 0 0 0 0 0 0 0 0 0 0 0 0 0 0 0 0 0 0 0 0 0 0 0 0 0 0 0 0 0 0 0 0 0 0 0 0 6 15 23 38 53 54 61 54 32 19 23 21 21 23 25 28 27 32 46 43 38 37 44 55 60 67 68 84 112 84 83 99 148 152 139 149 105 129 155 147 174 136 165 182 194 234 228 222 229 306 418 434 273 254 233 227 265 272 276 276 288 313 356 267 255 239 218 223 235 228 184 198 195 208 205 237 233 214 188 201 193 215 218 200 186 191 215 212 246 224 255 282 267 266 309 330 286 285 286 262 254 270 248 270 264 294 278 263 245 259 254 249 245 247 260 275 263 277 272 344 354 361 384 401 400 389 430 468 464 473 572 585 623 603 642 607 636 560 513 591 602 603 650 625 612 659 659 711 698 672 645 636 631 611 615 601 620 657 772 644 649 777 873 937 944 1014 977 943 949 985 970 984 905 917 882 882 832 837 820 862 844 837 835 820 753 730 719 732 734 736 761 788 663 678 654 664 662 673 676 674 692 713 756 740 724 773 747 751 714 730 732 729 775 826 786 841 894 848 820 919 900 881 840 861 871 873 846 859 858 854 835 870 874 865 883 932 1022 941 895 895 877 879 892 853 842 934 980 845 834 828 887 827 863 842 1028 1210 932 873 1012 1131 1252 1346 1393 1384 1324 1299 1381 1339 1330 1261 1018 973 917 924 1189 892 912 872 869 865 864 888 872 1048 849 818 964 970 886 943 1101 1365 1431 1334 1365 1067 869 871 864 861 907 1005 1044 1043 1127 1038 1202 1255 1237 1262 1490 1311 1387 1538 1428 1489 1531 1501 1443 1384 1383 1396 1328 1210 1277 1249 1166 1179 1245 1230 1289 1321 1288 1212 1087 1065 1015 991 1010 1044 965 894 889 948 992 828 838 884 789 845 886 835 823 827 885 825 894 1088 1225 1319 1225 1237 1308 1237 1252 1257 1208 1315 1373 1253 1271 1235 1271 1278 1316 1313 1321 1236 1214 1239 1212 1195 1163 1185 1258 1189 1329 1270 1204 1169 1159 1220 1223 1216 1182 1217 1233 1245 1000 939 966 938 931 953 936 936 951 918 947 929 965 999 910 922 913 865 866 865 847 850 957 849 864 870 889 888 916 912 895 908 1063 1054 1079 1061 1054 1063 986 943 977 1065 940 962 913 963 1045 1102 1089 1088 1089 1046 1064 1014 1061 1249 1280 1214 1191 1175 1159 1061 1097 1049 1068 1004 982 1010 1026 1029 1023 997 1011 955 953 926 936 853 886 930 854 824 837 781 640 599 515 487 468 642 526 566 560 542 560 443 397 333 448 450 377 634 574 557 542 564 410 454 566 675 875 743 678 759 571 428 310 231 433 481 319 219 270 153 101 193 86 78 51 28 117 27 48 26 41 12 21 35 20 38 15 6 11 0 0 0 0 0 0 0 0 0 0 0 0 0 0 0 0 0 0 0 0 0 0 0 0 0 0 0 0 0 0 0 0 0 0 0 0 0 0 0 0 0 0 0 0 0 0 0 0 0 0 0 0 0 0 0 0 0 0 0 0 0 0 0 0 0 0 0 0 0 0 0 0 0 0 0 0 0 0 0 0 0 0 0 0 0 0 0 0 0 0 0 0 0 0 0 0 0 0 0 0 0 0 0 0 0 0 0 0 0 0 0 0 0 0 0 0 0 0 0 0 0 0 0 0 0 0 0 0 0 0 0 0 0 0 0 0 0 0 0
